ply
format ascii 1.0
element vertex 1590
property float32 x
property float32 y
property float32 z
property float32 I
end_header
3.4327 9.1611 -1.5495 0.9612
2.3063 9.5074 -1.5495 0.9612
1.1464 9.7158 -1.5495 0.9612
-0.0330 10.7049 -1.6955 0.9576
-1.3248 10.6621 -1.7017 0.9574
-2.5972 10.4255 -1.7017 0.9574
-3.8319 10.0375 -1.7017 0.9574
-5.0110 9.5039 -1.7017 0.9574
-6.1175 8.8325 -1.7017 0.9574
-7.1351 8.0328 -1.7017 0.9574
-8.0492 7.1166 -1.7017 0.9574
-8.8465 6.0971 -1.7017 0.9574
-9.5155 4.9892 -1.7017 0.9574
-10.0463 3.8088 -1.7017 0.9574
-10.4314 2.5732 -1.7017 0.9574
-10.6651 1.3002 -1.7017 0.9574
-10.7441 0.0084 -1.7017 0.9574
-10.6671 -1.2835 -1.7017 0.9574
-10.4354 -2.5568 -1.7017 0.9574
-10.0523 -3.7930 -1.7017 0.9574
-9.5233 -4.9742 -1.7017 0.9574
-8.8561 -6.0832 -1.7017 0.9574
-8.0604 -7.1040 -1.7017 0.9574
-7.1477 -8.0216 -1.7017 0.9574
-6.1313 -8.8228 -1.7017 0.9574
-5.0259 -9.4961 -1.7017 0.9574
-3.8477 -10.0315 -1.7017 0.9574
-2.6136 -10.4214 -1.7017 0.9574
-1.3415 -10.6600 -1.7017 0.9574
-0.0500 -10.7440 -1.7017 0.9574
1.2422 -10.6720 -1.7017 0.9574
2.5164 -10.4452 -1.7017 0.9574
3.7541 -10.0669 -1.7017 0.9574
4.8342 -9.3431 -1.6661 0.9583
5.7024 -8.3709 -1.6042 0.9598
7.0727 -8.0878 -1.7017 0.9574
7.9939 -7.1787 -1.7017 0.9574
8.7991 -6.1654 -1.7017 0.9574
9.4765 -5.0627 -1.7017 0.9574
10.0165 -3.8865 -1.7017 0.9574
10.4112 -2.6539 -1.7017 0.9574
10.6547 -1.3828 -1.7017 0.9574
10.7437 -0.0916 -1.7017 0.9574
10.6768 1.2009 -1.7017 0.9574
9.6790 2.2922 -1.5754 0.9605
9.1797 3.3828 -1.5495 0.9612
5.7043 2.9235 -1.0152 0.9744
8.1066 5.4766 -1.5495 0.9612
7.3893 6.4116 -1.5495 0.9612
6.5648 7.2535 -1.5495 0.9612
5.6450 7.9903 -1.5495 0.9612
4.6432 8.6111 -1.5495 0.9612
3.5742 9.1069 -1.5495 0.9612
2.4532 9.4706 -1.5495 0.9612
1.2967 9.6968 -1.5495 0.9612
0.1213 9.7824 -1.5495 0.9612
-1.1596 10.6813 -1.7017 0.9574
-2.4355 10.4644 -1.7017 0.9574
-3.6761 10.0957 -1.7017 0.9574
-4.8633 9.5804 -1.7017 0.9574
-5.9800 8.9261 -1.7017 0.9574
-7.0099 8.1423 -1.7017 0.9574
-7.9380 7.2404 -1.7017 0.9574
-8.7510 6.2333 -1.7017 0.9574
-9.4371 5.1359 -1.7017 0.9574
-9.9861 3.9639 -1.7017 0.9574
-10.3903 2.7344 -1.7017 0.9574
-10.6437 1.4652 -1.7017 0.9574
-10.7427 0.1748 -1.7017 0.9574
-10.6857 -1.1182 -1.7017 0.9574
-10.4738 -2.3949 -1.7017 0.9574
-10.1098 -3.6369 -1.7017 0.9574
-9.5991 -4.8262 -1.7017 0.9574
-8.9492 -5.9454 -1.7017 0.9574
-8.1694 -6.9783 -1.7017 0.9574
-7.2711 -7.9100 -1.7017 0.9574
-6.2672 -8.7268 -1.7017 0.9574
-5.1724 -9.4171 -1.7017 0.9574
-4.0025 -9.9707 -1.7017 0.9574
-2.7746 -10.3797 -1.7017 0.9574
-1.5064 -10.6380 -1.7017 0.9574
-0.2163 -10.7419 -1.7017 0.9574
1.0768 -10.6900 -1.7017 0.9574
2.3544 -10.4830 -1.7017 0.9574
3.5978 -10.1238 -1.7017 0.9574
4.7810 -9.6016 -1.6988 0.9575
5.5586 -8.4377 -1.6003 0.9599
6.9328 -8.1800 -1.6983 0.9575
7.8818 -7.3016 -1.7017 0.9574
8.7025 -6.3009 -1.7017 0.9574
9.3970 -5.2088 -1.7017 0.9574
9.9551 -4.0411 -1.7017 0.9574
10.3688 -2.8148 -1.7017 0.9574
10.6321 -1.5475 -1.7017 0.9574
10.7410 -0.2579 -1.7017 0.9574
10.6941 1.0355 -1.7017 0.9574
10.3124 2.2742 -1.6726 0.9581
9.2309 3.2403 -1.5495 0.9612
5.8389 2.8792 -1.0311 0.9740
8.1904 5.3504 -1.5495 0.9612
7.4877 6.2964 -1.5495 0.9612
6.6763 7.1510 -1.5495 0.9612
5.7680 7.9019 -1.5495 0.9612
4.7760 8.5381 -1.5495 0.9612
3.7147 9.0505 -1.5495 0.9612
2.5995 9.4315 -1.5495 0.9612
1.4466 9.6756 -1.5495 0.9612
0.2727 9.7793 -1.5495 0.9612
-0.9940 10.6980 -1.7017 0.9574
-2.2732 10.5009 -1.7017 0.9574
-3.5193 10.1514 -1.7017 0.9574
-4.7144 9.6546 -1.7017 0.9574
-5.8411 9.0176 -1.7017 0.9574
-6.8830 8.2499 -1.7017 0.9574
-7.8250 7.3624 -1.7017 0.9574
-8.6535 6.3681 -1.7017 0.9574
-9.3564 5.2814 -1.7017 0.9574
-9.9236 4.1180 -1.7017 0.9574
-10.3467 2.8949 -1.7017 0.9574
-10.6198 1.6298 -1.7017 0.9574
-10.7387 0.3411 -1.7017 0.9574
-10.7018 -0.9526 -1.7017 0.9574
-10.5096 -2.2325 -1.7017 0.9574
-10.1649 -3.4800 -1.7017 0.9574
-9.6727 -4.6770 -1.7017 0.9574
-9.0402 -5.8061 -1.7017 0.9574
-8.2764 -6.8510 -1.7017 0.9574
-7.3926 -7.7965 -1.7017 0.9574
-6.4015 -8.6288 -1.7017 0.9574
-5.3176 -9.3359 -1.7017 0.9574
-4.1564 -9.9076 -1.7017 0.9574
-2.9350 -10.3354 -1.7017 0.9574
-1.6709 -10.6134 -1.7017 0.9574
-0.3826 -10.7373 -1.7017 0.9574
0.9112 -10.7054 -1.7017 0.9574
2.1918 -10.5182 -1.7017 0.9574
3.4407 -10.1783 -1.7017 0.9574
4.6395 -9.6907 -1.7017 0.9574
5.4238 -8.5172 -1.5993 0.9599
6.7220 -8.1849 -1.6775 0.9580
7.7678 -7.4227 -1.7017 0.9574
8.6040 -6.4349 -1.7017 0.9574
9.3153 -5.3536 -1.7017 0.9574
9.8914 -4.1947 -1.7017 0.9574
10.3240 -2.9749 -1.7017 0.9574
10.6068 -1.7120 -1.7017 0.9574
10.7357 -0.4242 -1.7017 0.9574
10.7088 0.8698 -1.7017 0.9574
10.4926 2.1442 -1.6962 0.9576
9.2800 3.0970 -1.5495 0.9612
8.8403 4.1904 -1.5495 0.9612
8.2723 5.2229 -1.5495 0.9612
7.5843 6.1797 -1.5495 0.9612
6.7862 7.0468 -1.5495 0.9612
5.8896 7.8117 -1.5495 0.9612
4.9076 8.4632 -1.5495 0.9612
3.8544 8.9919 -1.5495 0.9612
2.7452 9.3901 -1.5495 0.9612
1.5962 9.6520 -1.5495 0.9612
0.4241 9.7739 -1.5495 0.9612
-0.8283 10.7121 -1.7017 0.9574
-2.1103 10.5348 -1.7017 0.9574
-3.3617 10.2046 -1.7017 0.9574
-4.5644 9.7264 -1.7017 0.9574
-5.7008 9.1070 -1.7017 0.9574
-6.7544 8.3554 -1.7017 0.9574
-7.7101 7.4827 -1.7017 0.9574
-8.5539 6.5013 -1.7017 0.9574
-9.2735 5.4256 -1.7017 0.9574
-9.8586 4.2712 -1.7017 0.9574
-10.3007 3.0548 -1.7017 0.9574
-10.5933 1.7941 -1.7017 0.9574
-10.7321 0.5073 -1.7017 0.9574
-10.7152 -0.7868 -1.7017 0.9574
-10.5429 -2.0695 -1.7017 0.9574
-10.2176 -3.3222 -1.7017 0.9574
-9.7440 -4.5267 -1.7017 0.9574
-9.1290 -5.6654 -1.7017 0.9574
-8.3815 -6.7221 -1.7017 0.9574
-7.5124 -7.6811 -1.7017 0.9574
-6.5343 -8.5287 -1.7017 0.9574
-5.4614 -9.2525 -1.7017 0.9574
-4.3093 -9.8420 -1.7017 0.9574
-3.0946 -10.2888 -1.7017 0.9574
-1.8350 -10.5862 -1.7017 0.9574
-0.5488 -10.7301 -1.7017 0.9574
0.7454 -10.7182 -1.7017 0.9574
2.0287 -10.5508 -1.7017 0.9574
3.2826 -10.2303 -1.7017 0.9574
4.4889 -9.7614 -1.7017 0.9574
5.2976 -8.6105 -1.6012 0.9599
6.5198 -8.1942 -1.6585 0.9585
7.6519 -7.5421 -1.7017 0.9574
8.5033 -6.5673 -1.7017 0.9574
9.2313 -5.4972 -1.7017 0.9574
9.8253 -4.3474 -1.7017 0.9574
10.2767 -3.1344 -1.7017 0.9574
10.5790 -1.8760 -1.7017 0.9574
10.7279 -0.5904 -1.7017 0.9574
10.7210 0.7039 -1.7017 0.9574
10.5413 1.9846 -1.6989 0.9575
9.3268 2.9530 -1.5495 0.9612
8.9041 4.0530 -1.5495 0.9612
8.3522 5.0943 -1.5495 0.9612
7.6790 6.0616 -1.5495 0.9612
6.8945 6.9409 -1.5495 0.9612
6.0099 7.7196 -1.5495 0.9612
5.0380 8.3862 -1.5495 0.9612
3.9931 8.9311 -1.5495 0.9612
2.8903 9.3465 -1.5495 0.9612
1.7455 9.6262 -1.5495 0.9612
0.5754 9.7662 -1.5495 0.9612
-0.6624 10.7237 -1.7017 0.9574
-1.9470 10.5662 -1.7017 0.9574
-3.2033 10.2554 -1.7017 0.9574
-4.4132 9.7959 -1.7017 0.9574
-5.5591 9.1942 -1.7017 0.9574
-6.6242 8.4590 -1.7017 0.9574
-7.5933 7.6011 -1.7017 0.9574
-8.4522 6.6330 -1.7017 0.9574
-9.1884 5.5685 -1.7017 0.9574
-9.7913 4.4233 -1.7017 0.9574
-10.2522 3.2139 -1.7017 0.9574
-10.5642 1.9578 -1.7017 0.9574
-10.7230 0.6734 -1.7017 0.9574
-10.7261 -0.6209 -1.7017 0.9574
-10.5737 -1.9061 -1.7017 0.9574
-10.2678 -3.1636 -1.7017 0.9574
-9.8129 -4.3753 -1.7017 0.9574
-9.2156 -5.5235 -1.7017 0.9574
-8.4846 -6.5915 -1.7017 0.9574
-7.6305 -7.5638 -1.7017 0.9574
-6.6656 -8.4265 -1.7017 0.9574
-5.6041 -9.1668 -1.7017 0.9574
-4.4612 -9.7741 -1.7017 0.9574
-3.2536 -10.2396 -1.7017 0.9574
-1.9987 -10.5565 -1.7017 0.9574
-0.7149 -10.7203 -1.7017 0.9574
0.5793 -10.7285 -1.7017 0.9574
1.8651 -10.5810 -1.7017 0.9574
3.1238 -10.2799 -1.7017 0.9574
4.3372 -9.8297 -1.7017 0.9574
5.1804 -8.7196 -1.6064 0.9598
6.3305 -8.2141 -1.6425 0.9589
7.5343 -7.6597 -1.7017 0.9574
8.4006 -6.6982 -1.7017 0.9574
9.1450 -5.6395 -1.7017 0.9574
9.7568 -4.4989 -1.7017 0.9574
10.2270 -3.2931 -1.7017 0.9574
10.5487 -2.0396 -1.7017 0.9574
10.7174 -0.7564 -1.7017 0.9574
10.7306 0.5378 -1.7017 0.9574
10.5877 1.8241 -1.7016 0.9574
9.3714 2.8082 -1.5495 0.9612
8.9658 3.9147 -1.5495 0.9612
8.4300 4.9643 -1.5495 0.9612
7.7720 5.9419 -1.5495 0.9612
7.0011 6.8333 -1.5495 0.9612
6.1287 7.6256 -1.5495 0.9612
5.1673 8.3072 -1.5495 0.9612
4.1309 8.8682 -1.5495 0.9612
3.0346 9.3006 -1.5495 0.9612
1.8943 9.5980 -1.5495 0.9612
0.7265 9.7561 -1.5495 0.9612
-0.4963 10.7326 -1.7017 0.9574
-1.7832 10.5951 -1.7017 0.9574
-3.0442 10.3038 -1.7017 0.9574
-4.2610 9.8630 -1.7017 0.9574
-5.4161 9.2791 -1.7017 0.9574
-6.4925 8.5605 -1.7017 0.9574
-7.4747 7.7178 -1.7017 0.9574
-8.3485 6.7630 -1.7017 0.9574
-9.1011 5.7101 -1.7017 0.9574
-9.7217 4.5744 -1.7017 0.9574
-10.2012 3.3722 -1.7017 0.9574
-10.5326 2.1212 -1.7017 0.9574
-10.7113 0.8393 -1.7017 0.9574
-10.7345 -0.4547 -1.7017 0.9574
-10.6019 -1.7421 -1.7017 0.9574
-10.3155 -3.0043 -1.7017 0.9574
-9.8795 -4.2228 -1.7017 0.9574
-9.3000 -5.3801 -1.7017 0.9574
-8.5856 -6.4593 -1.7017 0.9574
-7.7467 -7.4448 -1.7017 0.9574
-6.7953 -8.3222 -1.7017 0.9574
-5.7453 -9.0789 -1.7017 0.9574
-4.6119 -9.7039 -1.7017 0.9574
-3.4117 -10.1880 -1.7017 0.9574
-2.1619 -10.5243 -1.7017 0.9574
-0.8807 -10.7079 -1.7017 0.9574
0.4132 -10.7361 -1.7017 0.9574
1.7011 -10.6086 -1.7017 0.9574
2.9643 -10.3271 -1.7017 0.9574
4.1846 -9.8957 -1.7017 0.9574
5.0727 -8.8474 -1.6153 0.9595
6.1516 -8.2428 -1.6290 0.9592
7.4148 -7.7754 -1.7017 0.9574
8.2959 -6.8274 -1.7017 0.9574
9.0566 -5.7804 -1.7017 0.9574
9.6860 -4.6495 -1.7017 0.9574
10.1748 -3.4511 -1.7017 0.9574
10.5159 -2.2027 -1.7017 0.9574
10.7044 -0.9222 -1.7017 0.9574
10.7377 0.3716 -1.7017 0.9574
10.6151 1.6600 -1.7017 0.9574
9.4138 2.6628 -1.5495 0.9612
9.0253 3.7754 -1.5495 0.9612
8.5059 4.8332 -1.5495 0.9612
7.8630 5.8209 -1.5495 0.9612
7.1060 6.7241 -1.5495 0.9612
6.2460 7.5298 -1.5495 0.9612
5.2953 8.2262 -1.5495 0.9612
4.2677 8.8032 -1.5495 0.9612
3.1783 9.2525 -1.5495 0.9612
2.0427 9.5675 -1.5495 0.9612
0.8775 9.7437 -1.5495 0.9612
-0.3298 10.7316 -1.7005 0.9574
-1.6189 10.6214 -1.7017 0.9574
-2.8843 10.3497 -1.7017 0.9574
-4.1078 9.9278 -1.7017 0.9574
-5.2717 9.3619 -1.7017 0.9574
-6.3592 8.6601 -1.7017 0.9574
-7.3543 7.8326 -1.7017 0.9574
-8.2428 6.8915 -1.7017 0.9574
-9.0116 5.8504 -1.7017 0.9574
-9.6497 4.7243 -1.7017 0.9574
-10.1477 3.5298 -1.7017 0.9574
-10.4985 2.2840 -1.7017 0.9574
-10.6970 1.0050 -1.7017 0.9574
-10.7402 -0.2885 -1.7017 0.9574
-10.6276 -1.5778 -1.7017 0.9574
-10.3608 -2.8442 -1.7017 0.9574
-9.9436 -4.0694 -1.7017 0.9574
-9.3822 -5.2355 -1.7017 0.9574
-8.6846 -6.3256 -1.7017 0.9574
-7.8610 -7.3240 -1.7017 0.9574
-6.9233 -8.2160 -1.7017 0.9574
-5.8852 -8.9889 -1.7017 0.9574
-4.7616 -9.6313 -1.7017 0.9574
-3.5690 -10.1340 -1.7017 0.9574
-2.3246 -10.4896 -1.7017 0.9574
-1.0465 -10.6930 -1.7017 0.9574
0.2469 -10.7413 -1.7017 0.9574
1.5366 -10.6336 -1.7017 0.9574
2.8041 -10.3717 -1.7017 0.9574
4.0308 -9.9593 -1.7017 0.9574
4.9753 -8.9977 -1.6284 0.9592
5.9824 -8.2806 -1.6180 0.9595
7.2935 -7.8893 -1.7017 0.9574
8.1892 -6.9551 -1.7017 0.9574
8.9661 -5.9199 -1.7017 0.9574
9.6128 -4.7989 -1.7017 0.9574
10.1201 -3.6082 -1.7017 0.9574
10.4805 -2.3652 -1.7017 0.9574
10.6889 -1.0878 -1.7017 0.9574
10.7421 0.2053 -1.7017 0.9574
8.5979 1.6484 -1.7017 0.9650
7.5916 2.4314 -1.5495 0.9680
7.2442 3.3266 -1.5495 0.9680
6.7916 4.1735 -1.5495 0.9680
6.2405 4.9599 -1.5495 0.9680
5.5989 5.6743 -1.5495 0.9680
4.8760 6.3063 -1.5495 0.9680
4.0823 6.8468 -1.5495 0.9680
3.2294 7.2880 -1.5495 0.9680
2.3297 7.6234 -1.5495 0.9680
1.3961 7.8483 -1.5495 0.9680
0.4465 8.0339 -1.5640 0.9677
-0.5688 8.7360 -1.7017 0.9650
-1.6151 8.6042 -1.7017 0.9650
-2.6380 8.3476 -1.7017 0.9650
-3.6225 7.9698 -1.7017 0.9650
-4.5546 7.4764 -1.7017 0.9650
-5.4205 6.8745 -1.7017 0.9650
-6.2077 6.1729 -1.7017 0.9650
-6.9050 5.3817 -1.7017 0.9650
-7.5020 4.5124 -1.7017 0.9650
-7.9901 3.5776 -1.7017 0.9650
-8.3623 2.5909 -1.7017 0.9650
-8.6132 1.5666 -1.7017 0.9650
-8.7390 0.5196 -1.7017 0.9650
-8.7381 -0.5350 -1.7017 0.9650
-8.6104 -1.5818 -1.7017 0.9650
-8.3577 -2.6056 -1.7017 0.9650
-7.9838 -3.5917 -1.7017 0.9650
-7.4940 -4.5256 -1.7017 0.9650
-6.8955 -5.3938 -1.7017 0.9650
-6.1969 -6.1838 -1.7017 0.9650
-5.4084 -6.8841 -1.7017 0.9650
-4.5414 -7.4844 -1.7017 0.9650
-3.6085 -7.9762 -1.7017 0.9650
-2.6232 -8.3522 -1.7017 0.9650
-1.5999 -8.6070 -1.7017 0.9650
-0.5534 -8.7370 -1.7017 0.9650
0.5011 -8.7401 -1.7017 0.9650
1.5484 -8.6165 -1.7017 0.9650
2.5733 -8.3678 -1.7017 0.9650
3.5607 -7.9976 -1.7017 0.9650
4.4965 -7.5115 -1.7017 0.9650
5.3671 -6.9163 -1.7017 0.9650
6.1598 -6.2208 -1.7017 0.9650
6.8631 -5.4350 -1.7017 0.9650
7.4668 -4.5703 -1.7017 0.9650
7.9622 -3.6393 -1.7017 0.9650
8.3420 -2.6556 -1.7017 0.9650
8.6008 -1.6332 -1.7017 0.9650
8.7348 -0.5872 -1.7017 0.9650
8.7420 0.4673 -1.7017 0.9650
8.6224 1.5151 -1.7017 0.9650
7.6333 2.3151 -1.5505 0.9680
7.2948 3.2140 -1.5495 0.9680
6.8554 4.0679 -1.5495 0.9680
6.3166 4.8627 -1.5495 0.9680
5.6860 5.5869 -1.5495 0.9680
4.9730 6.2301 -1.5495 0.9680
4.1878 6.7828 -1.5495 0.9680
3.3419 7.2371 -1.5495 0.9680
2.4474 7.5865 -1.5495 0.9680
1.5175 7.8257 -1.5495 0.9680
0.5655 7.9514 -1.5495 0.9680
-0.4335 8.7437 -1.7017 0.9650
-1.4817 8.6282 -1.7017 0.9650
-2.5084 8.3874 -1.7017 0.9650
-3.4987 8.0250 -1.7017 0.9650
-4.4383 7.5460 -1.7017 0.9650
-5.3134 6.9576 -1.7017 0.9650
-6.1114 6.2683 -1.7017 0.9650
-6.8208 5.4879 -1.7017 0.9650
-7.4312 4.6280 -1.7017 0.9650
-7.9338 3.7009 -1.7017 0.9650
-8.3212 2.7201 -1.7017 0.9650
-8.5879 1.6998 -1.7017 0.9650
-8.7300 0.6548 -1.7017 0.9650
-8.7454 -0.3996 -1.7017 0.9650
-8.6338 -1.4483 -1.7017 0.9650
-8.3971 -2.4759 -1.7017 0.9650
-8.0384 -3.4676 -1.7017 0.9650
-7.5632 -4.4090 -1.7017 0.9650
-6.9782 -5.2864 -1.7017 0.9650
-6.2919 -6.0871 -1.7017 0.9650
-5.5143 -6.7995 -1.7017 0.9650
-4.6567 -7.4132 -1.7017 0.9650
-3.7315 -7.9194 -1.7017 0.9650
-2.7522 -8.3106 -1.7017 0.9650
-1.7330 -8.5812 -1.7017 0.9650
-0.6886 -8.7274 -1.7017 0.9650
0.3658 -8.7468 -1.7017 0.9650
1.4148 -8.6394 -1.7017 0.9650
2.4434 -8.4066 -1.7017 0.9650
3.4365 -8.0518 -1.7017 0.9650
4.3797 -7.5802 -1.7017 0.9650
5.2594 -6.9986 -1.7017 0.9650
6.0627 -6.3154 -1.7017 0.9650
6.7781 -5.5406 -1.7017 0.9650
7.3951 -4.6854 -1.7017 0.9650
7.9049 -3.7622 -1.7017 0.9650
8.2999 -2.7844 -1.7017 0.9650
8.5745 -1.7662 -1.7017 0.9650
8.7246 -0.7224 -1.7017 0.9650
8.7482 0.3319 -1.7017 0.9650
8.6448 1.3814 -1.7017 0.9650
7.9813 2.2863 -1.6138 0.9667
7.3437 3.1007 -1.5495 0.9680
5.7123 3.2710 -1.2795 0.9735
6.3911 4.7643 -1.5495 0.9680
5.7719 5.4982 -1.5495 0.9680
5.0689 6.1523 -1.5495 0.9680
4.2923 6.7172 -1.5495 0.9680
3.4535 7.1845 -1.5495 0.9680
2.5646 7.5477 -1.5495 0.9680
1.6384 7.8013 -1.5495 0.9680
0.6885 7.9417 -1.5495 0.9680
-0.2981 8.7494 -1.7017 0.9650
-1.3479 8.6501 -1.7017 0.9650
-2.3782 8.4253 -1.7017 0.9650
-3.3740 8.0782 -1.7017 0.9650
-4.3209 7.6139 -1.7017 0.9650
-5.2050 7.0391 -1.7017 0.9650
-6.0137 6.3621 -1.7017 0.9650
-6.7350 5.5929 -1.7017 0.9650
-7.3587 4.7425 -1.7017 0.9650
-7.8755 3.8233 -1.7017 0.9650
-8.2781 2.8486 -1.7017 0.9650
-8.5605 1.8325 -1.7017 0.9650
-8.7188 0.7899 -1.7017 0.9650
-8.7505 -0.2642 -1.7017 0.9650
-8.6552 -1.3144 -1.7017 0.9650
-8.4344 -2.3456 -1.7017 0.9650
-8.0912 -3.3427 -1.7017 0.9650
-7.6305 -4.2914 -1.7017 0.9650
-7.0592 -5.1777 -1.7017 0.9650
-6.3854 -5.9890 -1.7017 0.9650
-5.6189 -6.7133 -1.7017 0.9650
-4.7709 -7.3402 -1.7017 0.9650
-3.8537 -7.8606 -1.7017 0.9650
-2.8806 -8.2670 -1.7017 0.9650
-1.8657 -8.5534 -1.7017 0.9650
-0.8236 -8.7157 -1.7017 0.9650
0.2303 -8.7514 -1.7017 0.9650
1.2809 -8.6603 -1.7017 0.9650
2.3129 -8.4434 -1.7017 0.9650
3.3114 -8.1040 -1.7017 0.9650
4.2618 -7.6471 -1.7017 0.9650
5.1504 -7.0791 -1.7017 0.9650
5.9642 -6.4085 -1.7017 0.9650
6.6915 -5.6449 -1.7017 0.9650
7.3217 -4.7993 -1.7017 0.9650
7.8457 -3.8841 -1.7017 0.9650
8.2558 -2.9126 -1.7017 0.9650
8.5461 -1.8987 -1.7017 0.9650
8.7124 -0.8573 -1.7017 0.9650
8.7523 0.1964 -1.7017 0.9650
8.6652 1.2474 -1.7017 0.9650
8.4145 2.2700 -1.6941 0.9651
7.3908 2.9867 -1.5495 0.9680
5.6694 3.1309 -1.2589 0.9740
6.4641 4.6648 -1.5495 0.9680
5.8563 5.4082 -1.5495 0.9680
5.1635 6.0731 -1.5495 0.9680
4.3958 6.6499 -1.5495 0.9680
3.5643 7.1302 -1.5495 0.9680
2.6811 7.5071 -1.5495 0.9680
1.7590 7.7750 -1.5495 0.9680
0.8114 7.9301 -1.5495 0.9680
-0.1625 8.7478 -1.7007 0.9650
-1.2138 8.6699 -1.7017 0.9650
-2.2475 8.4611 -1.7017 0.9650
-3.2486 8.1294 -1.7017 0.9650
-4.2025 7.6798 -1.7017 0.9650
-5.0954 7.1188 -1.7017 0.9650
-5.9144 6.4545 -1.7017 0.9650
-6.6476 5.6965 -1.7017 0.9650
-7.2843 4.8558 -1.7017 0.9650
-7.8154 3.9447 -1.7017 0.9650
-8.2330 2.9764 -1.7017 0.9650
-8.5311 1.9648 -1.7017 0.9650
-8.7055 0.9248 -1.7017 0.9650
-8.7535 -0.1287 -1.7017 0.9650
-8.6745 -1.1803 -1.7017 0.9650
-8.4697 -2.2147 -1.7017 0.9650
-8.1419 -3.2171 -1.7017 0.9650
-7.6960 -4.1727 -1.7017 0.9650
-7.1385 -5.0678 -1.7017 0.9650
-6.4773 -5.8894 -1.7017 0.9650
-5.7222 -6.6255 -1.7017 0.9650
-4.8840 -7.2655 -1.7017 0.9650
-3.9749 -7.8000 -1.7017 0.9650
-3.0082 -8.2214 -1.7017 0.9650
-1.9979 -8.5235 -1.7017 0.9650
-0.9585 -8.7018 -1.7017 0.9650
0.0948 -8.7540 -1.7017 0.9650
1.1467 -8.6791 -1.7017 0.9650
2.1819 -8.4782 -1.7017 0.9650
3.1855 -8.1543 -1.7017 0.9650
4.1429 -7.7121 -1.7017 0.9650
5.0402 -7.1580 -1.7017 0.9650
5.8643 -6.5001 -1.7017 0.9650
6.6033 -5.7478 -1.7017 0.9650
7.2465 -4.9121 -1.7017 0.9650
7.7846 -4.0051 -1.7017 0.9650
8.2097 -3.0400 -1.7017 0.9650
8.5157 -2.0308 -1.7017 0.9650
8.6981 -0.9922 -1.7017 0.9650
8.7543 0.0609 -1.7017 0.9650
8.6834 1.1131 -1.7017 0.9650
8.4594 2.1422 -1.6962 0.9651
7.4362 2.8719 -1.5495 0.9680
5.6704 3.0179 -1.2486 0.9742
6.5355 4.5641 -1.5495 0.9680
5.9393 5.3169 -1.5495 0.9680
5.2569 5.9924 -1.5495 0.9680
4.4983 6.5810 -1.5495 0.9680
3.6743 7.0742 -1.5495 0.9680
2.7970 7.4647 -1.5495 0.9680
1.8792 7.7468 -1.5495 0.9680
0.9341 7.9166 -1.5495 0.9680
-0.0270 8.7380 -1.6985 0.9650
-1.0795 8.6877 -1.7017 0.9650
-2.1163 8.4948 -1.7017 0.9650
-3.1223 8.1788 -1.7017 0.9650
-4.0831 7.7440 -1.7017 0.9650
-4.9846 7.1968 -1.7017 0.9650
-5.8138 6.5453 -1.7017 0.9650
-6.5586 5.7987 -1.7017 0.9650
-7.2083 4.9680 -1.7017 0.9650
-7.7534 4.0653 -1.7017 0.9650
-8.1859 3.1035 -1.7017 0.9650
-8.4997 2.0967 -1.7017 0.9650
-8.6901 1.0595 -1.7017 0.9650
-8.7545 0.0069 -1.7017 0.9650
-8.6918 -1.0458 -1.7017 0.9650
-8.5030 -2.0834 -1.7017 0.9650
-8.1908 -3.0906 -1.7017 0.9650
-7.7597 -4.0531 -1.7017 0.9650
-7.2161 -4.9567 -1.7017 0.9650
-6.5677 -5.7884 -1.7017 0.9650
-5.8241 -6.5361 -1.7017 0.9650
-4.9959 -7.1890 -1.7017 0.9650
-4.0952 -7.7376 -1.7017 0.9650
-3.1351 -8.1738 -1.7017 0.9650
-2.1296 -8.4915 -1.7017 0.9650
-1.0931 -8.6860 -1.7017 0.9650
-0.0408 -8.7544 -1.7017 0.9650
1.0122 -8.6958 -1.7017 0.9650
2.0504 -8.5110 -1.7017 0.9650
3.0589 -8.2027 -1.7017 0.9650
4.0230 -7.7754 -1.7017 0.9650
4.9288 -7.2352 -1.7017 0.9650
5.7630 -6.5901 -1.7017 0.9650
6.5136 -5.8493 -1.7017 0.9650
7.1696 -5.0237 -1.7017 0.9650
7.7217 -4.1252 -1.7017 0.9650
8.1616 -3.1668 -1.7017 0.9650
8.4832 -2.1624 -1.7017 0.9650
8.6817 -1.1267 -1.7017 0.9650
8.7542 -0.0746 -1.7017 0.9650
8.6996 0.9785 -1.7017 0.9650
8.5025 2.0136 -1.6984 0.9650
7.4798 2.7564 -1.5495 0.9680
5.6736 2.9078 -1.2392 0.9744
6.6054 4.4624 -1.5495 0.9680
6.0209 5.2243 -1.5495 0.9680
5.3491 5.9103 -1.5495 0.9680
4.5996 6.5106 -1.5495 0.9680
3.7834 7.0164 -1.5495 0.9680
2.9123 7.4204 -1.5495 0.9680
1.9989 7.7168 -1.5495 0.9680
1.0566 7.9011 -1.5495 0.9680
0.1082 8.7261 -1.6963 0.9651
-0.9448 8.7033 -1.7017 0.9650
-1.9845 8.5266 -1.7017 0.9650
-2.9953 8.2261 -1.7017 0.9650
-3.9627 7.8063 -1.7017 0.9650
-4.8726 7.2731 -1.7017 0.9650
-5.7118 6.6345 -1.7017 0.9650
-6.4681 5.8996 -1.7017 0.9650
-7.1305 5.0790 -1.7017 0.9650
-7.6895 4.1848 -1.7017 0.9650
-8.1369 3.2299 -1.7017 0.9650
-8.4662 2.2281 -1.7017 0.9650
-8.6727 1.1939 -1.7017 0.9650
-8.7533 0.1424 -1.7017 0.9650
-8.7069 -0.9111 -1.7017 0.9650
-8.5342 -1.9514 -1.7017 0.9650
-8.2376 -2.9634 -1.7017 0.9650
-7.8216 -3.9324 -1.7017 0.9650
-7.2920 -4.8444 -1.7017 0.9650
-6.6566 -5.6860 -1.7017 0.9650
-5.9246 -6.4452 -1.7017 0.9650
-5.1066 -7.1108 -1.7017 0.9650
-4.2145 -7.6732 -1.7017 0.9650
-3.2613 -8.1243 -1.7017 0.9650
-2.2608 -8.4575 -1.7017 0.9650
-1.2274 -8.6680 -1.7017 0.9650
-0.1763 -8.7527 -1.7017 0.9650
0.8774 -8.7104 -1.7017 0.9650
1.9184 -8.5417 -1.7017 0.9650
2.9316 -8.2491 -1.7017 0.9650
3.9022 -7.8367 -1.7017 0.9650
4.8161 -7.3107 -1.7017 0.9650
5.6602 -6.6785 -1.7017 0.9650
6.4222 -5.9495 -1.7017 0.9650
7.0910 -5.1341 -1.7017 0.9650
7.6569 -4.2442 -1.7017 0.9650
8.1116 -3.2928 -1.7017 0.9650
8.4487 -2.2935 -1.7017 0.9650
8.6632 -1.2610 -1.7017 0.9650
8.7520 -0.2101 -1.7017 0.9650
8.7137 0.8437 -1.7017 0.9650
8.5436 1.8842 -1.7006 0.9650
7.5215 2.6403 -1.5495 0.9680
5.7802 2.8503 -1.2527 0.9741
6.6737 4.3596 -1.5495 0.9680
6.1011 5.1304 -1.5495 0.9680
5.4399 5.8268 -1.5495 0.9680
4.6999 6.4386 -1.5495 0.9680
3.8916 6.9570 -1.5495 0.9680
3.0268 7.3745 -1.5495 0.9680
2.1181 7.6849 -1.5495 0.9680
1.1787 7.8838 -1.5495 0.9680
0.2430 8.7122 -1.6941 0.9651
-0.8100 8.7169 -1.7017 0.9650
-1.8522 8.5563 -1.7017 0.9650
-2.8676 8.2715 -1.7017 0.9650
-3.8414 7.8667 -1.7017 0.9650
-4.7594 7.3477 -1.7017 0.9650
-5.6084 6.7221 -1.7017 0.9650
-6.3760 5.9990 -1.7017 0.9650
-7.0510 5.1888 -1.7017 0.9650
-7.6238 4.3033 -1.7017 0.9650
-8.0859 3.3554 -1.7017 0.9650
-8.4307 2.3588 -1.7017 0.9650
-8.6532 1.3280 -1.7017 0.9650
-8.7501 0.2779 -1.7017 0.9650
-8.7200 -0.7762 -1.7017 0.9650
-8.5634 -1.8191 -1.7017 0.9650
-8.2825 -2.8356 -1.7017 0.9650
-7.8815 -3.8109 -1.7017 0.9650
-7.3661 -4.7309 -1.7017 0.9650
-6.7438 -5.5823 -1.7017 0.9650
-6.0236 -6.3527 -1.7017 0.9650
-5.2161 -7.0309 -1.7017 0.9650
-4.3328 -7.6071 -1.7017 0.9650
-3.3867 -8.0729 -1.7017 0.9650
-2.3915 -8.4215 -1.7017 0.9650
-1.3615 -8.6480 -1.7017 0.9650
-0.3118 -8.7489 -1.7017 0.9650
0.7425 -8.7229 -1.7017 0.9650
1.7859 -8.5704 -1.7017 0.9650
2.8035 -8.2934 -1.7017 0.9650
3.7804 -7.8962 -1.7017 0.9650
4.7024 -7.3843 -1.7017 0.9650
5.5562 -6.7653 -1.7017 0.9650
6.3293 -6.0482 -1.7017 0.9650
7.0107 -5.2432 -1.7017 0.9650
7.5902 -4.3622 -1.7017 0.9650
8.0597 -3.4179 -1.7017 0.9650
8.4122 -2.4240 -1.7017 0.9650
8.6426 -1.3950 -1.7017 0.9650
8.7477 -0.3456 -1.7017 0.9650
8.7257 0.7087 -1.7017 0.9650
8.5772 1.7527 -1.7017 0.9650
7.5615 2.5235 -1.5495 0.9680
6.0013 2.8446 -1.2909 0.9733
6.7404 4.2557 -1.5495 0.9680
6.1798 5.0353 -1.5495 0.9680
5.5295 5.7419 -1.5495 0.9680
4.7990 6.3651 -1.5495 0.9680
3.9988 6.8959 -1.5495 0.9680
3.1406 7.3267 -1.5495 0.9680
2.2368 7.6512 -1.5495 0.9680
1.3006 7.8647 -1.5495 0.9680
0.3599 8.2946 -1.6138 0.9667
-0.6749 8.7284 -1.7017 0.9650
-1.7195 8.5839 -1.7017 0.9650
-2.7392 8.3149 -1.7017 0.9650
-3.7191 7.9252 -1.7017 0.9650
-4.6451 7.4205 -1.7017 0.9650
-5.5036 6.8082 -1.7017 0.9650
-6.2823 6.0970 -1.7017 0.9650
-6.9698 5.2974 -1.7017 0.9650
-7.5562 4.4209 -1.7017 0.9650
-8.0330 3.4802 -1.7017 0.9650
-8.3932 2.4891 -1.7017 0.9650
-8.6316 1.4618 -1.7017 0.9650
-8.7447 0.4134 -1.7017 0.9650
-8.7310 -0.6411 -1.7017 0.9650
-8.5905 -1.6863 -1.7017 0.9650
-8.3255 -2.7070 -1.7017 0.9650
-7.9396 -3.6884 -1.7017 0.9650
-7.4385 -4.6163 -1.7017 0.9650
-6.8294 -5.4772 -1.7017 0.9650
-6.1213 -6.2587 -1.7017 0.9650
-5.3243 -6.9493 -1.7017 0.9650
-4.4501 -7.5391 -1.7017 0.9650
-3.5113 -8.0195 -1.7017 0.9650
-2.5215 -8.3835 -1.7017 0.9650
-1.4952 -8.6258 -1.7017 0.9650
-0.4472 -8.7430 -1.7017 0.9650
0.6073 -8.7334 -1.7017 0.9650
1.6530 -8.5970 -1.7017 0.9650
2.6748 -8.3359 -1.7017 0.9650
3.6577 -7.9538 -1.7017 0.9650
4.5875 -7.4563 -1.7017 0.9650
5.4508 -6.8506 -1.7017 0.9650
6.2349 -6.1455 -1.7017 0.9650
6.9286 -5.3512 -1.7017 0.9650
7.5218 -4.4792 -1.7017 0.9650
8.0058 -3.5423 -1.7017 0.9650
8.3736 -2.5540 -1.7017 0.9650
8.6200 -1.5286 -1.7017 0.9650
8.7413 -0.4810 -1.7017 0.9650
8.7357 0.5735 -1.7017 0.9650
8.6033 1.6198 -1.7017 0.9650
7.5997 2.4061 -1.5495 0.9680
7.2552 3.3025 -1.5495 0.9680
6.8055 4.1509 -1.5495 0.9680
6.2570 4.9391 -1.5495 0.9680
5.6177 5.6556 -1.5495 0.9680
4.8969 6.2900 -1.5495 0.9680
4.1051 6.8332 -1.5495 0.9680
3.2537 7.2772 -1.5495 0.9680
2.3551 7.6157 -1.5495 0.9680
1.4222 7.8436 -1.5495 0.9680
0.4701 7.9788 -1.5536 0.9680
-0.5397 8.7378 -1.7017 0.9650
-1.5864 8.6095 -1.7017 0.9650
-2.6101 8.3563 -1.7017 0.9650
-3.5960 7.9818 -1.7017 0.9650
-4.5296 7.4916 -1.7017 0.9650
-5.3975 6.8926 -1.7017 0.9650
-6.1872 6.1935 -1.7017 0.9650
-6.8870 5.4047 -1.7017 0.9650
-7.4869 4.5374 -1.7017 0.9650
-7.9782 3.6042 -1.7017 0.9650
-8.3536 2.6187 -1.7017 0.9650
-8.6079 1.5953 -1.7017 0.9650
-8.7373 0.5487 -1.7017 0.9650
-8.7398 -0.5059 -1.7017 0.9650
-8.6156 -1.5531 -1.7017 0.9650
-8.3664 -2.5778 -1.7017 0.9650
-7.9957 -3.5651 -1.7017 0.9650
-7.5090 -4.5006 -1.7017 0.9650
-6.9134 -5.3708 -1.7017 0.9650
-6.2174 -6.1631 -1.7017 0.9650
-5.4313 -6.8660 -1.7017 0.9650
-4.5663 -7.4693 -1.7017 0.9650
-3.6350 -7.9641 -1.7017 0.9650
-2.6511 -8.3434 -1.7017 0.9650
-1.6286 -8.6017 -1.7017 0.9650
-0.5825 -8.7351 -1.7017 0.9650
0.4720 -8.7417 -1.7017 0.9650
1.5197 -8.6216 -1.7017 0.9650
2.5454 -8.3763 -1.7017 0.9650
3.5341 -8.0094 -1.7017 0.9650
4.4715 -7.5264 -1.7017 0.9650
5.3441 -6.9341 -1.7017 0.9650
6.1390 -6.2412 -1.7017 0.9650
6.8450 -5.4578 -1.7017 0.9650
7.4515 -4.5951 -1.7017 0.9650
7.9500 -3.6658 -1.7017 0.9650
8.3331 -2.6833 -1.7017 0.9650
8.5953 -1.6619 -1.7017 0.9650
8.7328 -0.6163 -1.7017 0.9650
8.7435 0.4382 -1.7017 0.9650
8.6274 1.4864 -1.7017 0.9650
7.6943 2.3056 -1.5613 0.9678
7.3055 3.1897 -1.5495 0.9680
6.8689 4.0450 -1.5495 0.9680
6.3327 4.8416 -1.5495 0.9680
5.7046 5.5679 -1.5495 0.9680
4.9937 6.2135 -1.5495 0.9680
4.2104 6.7688 -1.5495 0.9680
3.3660 7.2260 -1.5495 0.9680
2.4727 7.5783 -1.5495 0.9680
1.5435 7.8206 -1.5495 0.9680
0.5920 7.9495 -1.5495 0.9680
-0.4044 8.7451 -1.7017 0.9650
-1.4530 8.6331 -1.7017 0.9650
-2.4805 8.3957 -1.7017 0.9650
-3.4720 8.0366 -1.7017 0.9650
-4.4131 7.5608 -1.7017 0.9650
-5.2902 6.9753 -1.7017 0.9650
-6.0905 6.2886 -1.7017 0.9650
-6.8025 5.5106 -1.7017 0.9650
-7.4157 4.6527 -1.7017 0.9650
-7.9214 3.7273 -1.7017 0.9650
-8.3121 2.7478 -1.7017 0.9650
-8.5822 1.7284 -1.7017 0.9650
-8.7277 0.6839 -1.7017 0.9650
-8.7466 -0.3705 -1.7017 0.9650
-8.6386 -1.4195 -1.7017 0.9650
-8.4053 -2.4479 -1.7017 0.9650
-8.0499 -3.4408 -1.7017 0.9650
-7.5778 -4.3838 -1.7017 0.9650
-6.9957 -5.2632 -1.7017 0.9650
-6.3121 -6.0661 -1.7017 0.9650
-5.5369 -6.7811 -1.7017 0.9650
-4.6814 -7.3977 -1.7017 0.9650
-3.7579 -7.9069 -1.7017 0.9650
-2.7799 -8.3014 -1.7017 0.9650
-1.7616 -8.5754 -1.7017 0.9650
-0.7177 -8.7250 -1.7017 0.9650
0.3367 -8.7480 -1.7017 0.9650
1.3861 -8.6441 -1.7017 0.9650
2.4154 -8.4147 -1.7017 0.9650
3.4097 -8.0632 -1.7017 0.9650
4.3544 -7.5947 -1.7017 0.9650
5.2360 -7.0160 -1.7017 0.9650
6.0417 -6.3355 -1.7017 0.9650
6.7596 -5.5631 -1.7017 0.9650
7.3795 -4.7100 -1.7017 0.9650
7.8923 -3.7885 -1.7017 0.9650
8.2906 -2.8120 -1.7017 0.9650
8.5685 -1.7948 -1.7017 0.9650
8.7222 -0.7514 -1.7017 0.9650
8.7492 0.3028 -1.7017 0.9650
8.6494 1.3526 -1.7017 0.9650
8.0682 2.2822 -1.6298 0.9664
7.3540 3.0763 -1.5495 0.9680
5.6695 3.2215 -1.2675 0.9738
6.4069 4.7430 -1.5495 0.9680
5.7901 5.4789 -1.5495 0.9680
5.0893 6.1354 -1.5495 0.9680
4.3147 6.7028 -1.5495 0.9680
3.4774 7.1730 -1.5495 0.9680
2.5897 7.5391 -1.5495 0.9680
1.6644 7.7958 -1.5495 0.9680
0.7150 7.9394 -1.5495 0.9680
-0.2689 8.7504 -1.7017 0.9650
-1.3191 8.6545 -1.7017 0.9650
-2.3502 8.4331 -1.7017 0.9650
-3.3471 8.0894 -1.7017 0.9650
-4.2955 7.6282 -1.7017 0.9650
-5.1816 7.0564 -1.7017 0.9650
-5.9924 6.3821 -1.7017 0.9650
-6.7164 5.6153 -1.7017 0.9650
-7.3428 4.7670 -1.7017 0.9650
-7.8627 3.8495 -1.7017 0.9650
-8.2685 2.8761 -1.7017 0.9650
-8.5544 1.8610 -1.7017 0.9650
-8.7161 0.8189 -1.7017 0.9650
-8.7513 -0.2351 -1.7017 0.9650
-8.6596 -1.2856 -1.7017 0.9650
-8.4421 -2.3175 -1.7017 0.9650
-8.1022 -3.3158 -1.7017 0.9650
-7.6448 -4.2660 -1.7017 0.9650
-7.0764 -5.1542 -1.7017 0.9650
-6.4053 -5.9677 -1.7017 0.9650
-5.6412 -6.6946 -1.7017 0.9650
-4.7953 -7.3243 -1.7017 0.9650
-3.8799 -7.8478 -1.7017 0.9650
-2.9081 -8.2574 -1.7017 0.9650
-1.8941 -8.5471 -1.7017 0.9650
-0.8527 -8.7129 -1.7017 0.9650
0.2012 -8.7522 -1.7017 0.9650
1.2521 -8.6645 -1.7017 0.9650
2.2848 -8.4511 -1.7017 0.9650
3.2844 -8.1150 -1.7017 0.9650
4.2363 -7.6612 -1.7017 0.9650
5.1268 -7.0963 -1.7017 0.9650
5.9429 -6.4283 -1.7017 0.9650
6.6727 -5.6671 -1.7017 0.9650
7.3057 -4.8236 -1.7017 0.9650
7.8327 -3.9102 -1.7017 0.9650
8.2460 -2.9400 -1.7017 0.9650
8.5397 -1.9272 -1.7017 0.9650
8.7095 -0.8864 -1.7017 0.9650
8.7529 0.1673 -1.7017 0.9650
7.2390 1.3879 -1.7017 0.9702
6.9950 2.2403 -1.6957 0.9703
6.0610 2.7833 -1.5398 0.9730
5.7182 3.5139 -1.5495 0.9728
5.2542 4.1760 -1.5495 0.9728
4.7140 4.7775 -1.5495 0.9728
4.1053 5.3096 -1.5495 0.9728
3.4371 5.7647 -1.5495 0.9728
2.7190 6.1362 -1.5495 0.9728
1.9615 6.4186 -1.5495 0.9728
1.1755 6.6079 -1.5495 0.9728
0.4081 7.3436 -1.6980 0.9703
-0.4789 7.3553 -1.7017 0.9702
-1.3598 7.2443 -1.7017 0.9702
-2.2210 7.0283 -1.7017 0.9702
-3.0500 6.7102 -1.7017 0.9702
-3.8347 6.2948 -1.7017 0.9702
-4.5638 5.7880 -1.7017 0.9702
-5.2266 5.1973 -1.7017 0.9702
-5.8137 4.5311 -1.7017 0.9702
-6.3163 3.7992 -1.7017 0.9702
-6.7273 3.0122 -1.7017 0.9702
-7.0407 2.1814 -1.7017 0.9702
-7.2519 1.3190 -1.7017 0.9702
-7.3579 0.4375 -1.7017 0.9702
-7.3571 -0.4504 -1.7017 0.9702
-7.2496 -1.3318 -1.7017 0.9702
-7.0368 -2.1938 -1.7017 0.9702
-6.7220 -3.0240 -1.7017 0.9702
-6.3096 -3.8103 -1.7017 0.9702
-5.8057 -4.5414 -1.7017 0.9702
-5.2175 -5.2065 -1.7017 0.9702
-4.5536 -5.7961 -1.7017 0.9702
-3.8236 -6.3015 -1.7017 0.9702
-3.0382 -6.7156 -1.7017 0.9702
-2.2087 -7.0322 -1.7017 0.9702
-1.3471 -7.2467 -1.7017 0.9702
-0.4659 -7.3561 -1.7017 0.9702
0.4219 -7.3588 -1.7017 0.9702
1.3037 -7.2547 -1.7017 0.9702
2.1666 -7.0453 -1.7017 0.9702
2.9980 -6.7336 -1.7017 0.9702
3.7859 -6.3243 -1.7017 0.9702
4.5188 -5.8232 -1.7017 0.9702
5.1863 -5.2376 -1.7017 0.9702
5.7784 -4.5760 -1.7017 0.9702
6.2867 -3.8480 -1.7017 0.9702
6.7038 -3.0642 -1.7017 0.9702
7.0236 -2.2359 -1.7017 0.9702
7.2415 -1.3751 -1.7017 0.9702
7.3543 -0.4944 -1.7017 0.9702
7.3604 0.3935 -1.7017 0.9702
7.2596 1.2756 -1.7017 0.9702
7.0360 2.1339 -1.6975 0.9703
6.1419 2.7061 -1.5495 0.9728
5.7720 3.4250 -1.5495 0.9728
5.3183 4.0941 -1.5495 0.9728
4.7874 4.7039 -1.5495 0.9728
4.1871 5.2454 -1.5495 0.9728
3.5260 5.7108 -1.5495 0.9728
2.8137 6.0933 -1.5495 0.9728
2.0606 6.3875 -1.5495 0.9728
1.2776 6.5889 -1.5495 0.9728
0.5212 7.3293 -1.6964 0.9703
-0.3650 7.3618 -1.7017 0.9702
-1.2475 7.2645 -1.7017 0.9702
-2.1120 7.0618 -1.7017 0.9702
-2.9458 6.7567 -1.7017 0.9702
-3.7368 6.3534 -1.7017 0.9702
-4.4736 5.8580 -1.7017 0.9702
-5.1455 5.2776 -1.7017 0.9702
-5.7428 4.6206 -1.7017 0.9702
-6.2567 3.8966 -1.7017 0.9702
-6.6798 3.1160 -1.7017 0.9702
-7.0061 2.2902 -1.7017 0.9702
-7.2306 1.4311 -1.7017 0.9702
-7.3502 0.5513 -1.7017 0.9702
-7.3632 -0.3365 -1.7017 0.9702
-7.2693 -1.2194 -1.7017 0.9702
-7.0699 -2.0846 -1.7017 0.9702
-6.7680 -2.9196 -1.7017 0.9702
-6.3678 -3.7122 -1.7017 0.9702
-5.8753 -4.4509 -1.7017 0.9702
-5.2975 -5.1251 -1.7017 0.9702
-4.6428 -5.7249 -1.7017 0.9702
-3.9207 -6.2416 -1.7017 0.9702
-3.1418 -6.6677 -1.7017 0.9702
-2.3173 -6.9971 -1.7017 0.9702
-1.4591 -7.2250 -1.7017 0.9702
-0.5798 -7.3480 -1.7017 0.9702
0.3080 -7.3644 -1.7017 0.9702
1.1912 -7.2740 -1.7017 0.9702
2.0572 -7.0780 -1.7017 0.9702
2.8934 -6.7792 -1.7017 0.9702
3.6875 -6.3822 -1.7017 0.9702
4.4282 -5.8925 -1.7017 0.9702
5.1045 -5.3173 -1.7017 0.9702
5.7069 -4.6649 -1.7017 0.9702
6.2264 -3.9449 -1.7017 0.9702
6.6555 -3.1676 -1.7017 0.9702
6.9881 -2.3443 -1.7017 0.9702
7.2193 -1.4871 -1.7017 0.9702
7.3457 -0.6082 -1.7017 0.9702
7.3656 0.2795 -1.7017 0.9702
7.2785 1.1631 -1.7017 0.9702
7.0754 2.0268 -1.6992 0.9702
6.1831 2.6107 -1.5495 0.9728
5.6042 3.2092 -1.4909 0.9738
5.3810 4.0113 -1.5495 0.9728
4.8597 4.6292 -1.5495 0.9728
4.2678 5.1800 -1.5495 0.9728
3.6140 5.6555 -1.5495 0.9728
2.9077 6.0491 -1.5495 0.9728
2.1593 6.3548 -1.5495 0.9728
1.3795 6.5683 -1.5495 0.9728
0.6340 7.3133 -1.6947 0.9703
-0.2509 7.3666 -1.7017 0.9702
-1.1349 7.2830 -1.7017 0.9702
-2.0024 7.0937 -1.7017 0.9702
-2.8408 6.8014 -1.7017 0.9702
-3.6380 6.4105 -1.7017 0.9702
-4.3824 5.9266 -1.7017 0.9702
-5.0632 5.3566 -1.7017 0.9702
-5.6706 4.7090 -1.7017 0.9702
-6.1956 3.9930 -1.7017 0.9702
-6.6308 3.2190 -1.7017 0.9702
-6.9698 2.3984 -1.7017 0.9702
-7.2076 1.5429 -1.7017 0.9702
-7.3408 0.6651 -1.7017 0.9702
-7.3675 -0.2224 -1.7017 0.9702
-7.2873 -1.1067 -1.7017 0.9702
-7.1014 -1.9749 -1.7017 0.9702
-6.8124 -2.8144 -1.7017 0.9702
-6.4245 -3.6131 -1.7017 0.9702
-5.9435 -4.3594 -1.7017 0.9702
-5.3762 -5.0425 -1.7017 0.9702
-4.7309 -5.6523 -1.7017 0.9702
-4.0169 -6.1801 -1.7017 0.9702
-3.2446 -6.6183 -1.7017 0.9702
-2.4253 -6.9604 -1.7017 0.9702
-1.5708 -7.2015 -1.7017 0.9702
-0.6935 -7.3382 -1.7017 0.9702
0.1939 -7.3683 -1.7017 0.9702
1.0785 -7.2915 -1.7017 0.9702
1.9474 -7.1090 -1.7017 0.9702
2.7880 -6.8232 -1.7017 0.9702
3.5883 -6.4385 -1.7017 0.9702
4.3364 -5.9603 -1.7017 0.9702
5.0216 -5.3957 -1.7017 0.9702
5.6340 -4.7527 -1.7017 0.9702
6.1645 -4.0408 -1.7017 0.9702
6.6057 -3.2702 -1.7017 0.9702
6.9510 -2.4522 -1.7017 0.9702
7.1954 -1.5987 -1.7017 0.9702
7.3354 -0.7219 -1.7017 0.9702
7.3690 0.1654 -1.7017 0.9702
7.2957 1.0503 -1.7017 0.9702
7.1133 1.9190 -1.7009 0.9702
6.2265 2.5162 -1.5504 0.9728
5.6039 3.0948 -1.4779 0.9741
5.4425 3.9275 -1.5495 0.9728
4.9307 4.5534 -1.5495 0.9728
4.3475 5.1133 -1.5495 0.9728
3.7011 5.5989 -1.5495 0.9728
3.0010 6.0033 -1.5495 0.9728
2.2574 6.3206 -1.5495 0.9728
1.4810 6.5462 -1.5495 0.9728
0.7358 7.1917 -1.6690 0.9708
-0.1369 7.3696 -1.7017 0.9702
-1.0220 7.2997 -1.7017 0.9702
-1.8923 7.1238 -1.7017 0.9702
-2.7351 6.8446 -1.7017 0.9702
-3.5383 6.4661 -1.7017 0.9702
-4.2901 5.9937 -1.7017 0.9702
-4.9797 5.4344 -1.7017 0.9702
-5.5970 4.7962 -1.7017 0.9702
-6.1331 4.0884 -1.7017 0.9702
-6.5802 3.3213 -1.7017 0.9702
-6.9318 2.5060 -1.7017 0.9702
-7.1828 1.6543 -1.7017 0.9702
-7.3296 0.7786 -1.7017 0.9702
-7.3701 -0.1083 -1.7017 0.9702
-7.3036 -0.9937 -1.7017 0.9702
-7.1311 -1.8647 -1.7017 0.9702
-6.8551 -2.7086 -1.7017 0.9702
-6.4797 -3.5132 -1.7017 0.9702
-6.0103 -4.2669 -1.7017 0.9702
-5.4536 -4.9586 -1.7017 0.9702
-4.8178 -5.5784 -1.7017 0.9702
-4.1121 -6.1172 -1.7017 0.9702
-3.3467 -6.5673 -1.7017 0.9702
-2.5328 -6.9220 -1.7017 0.9702
-1.6821 -7.1764 -1.7017 0.9702
-0.8070 -7.3266 -1.7017 0.9702
0.0798 -7.3704 -1.7017 0.9702
0.9655 -7.3074 -1.7017 0.9702
1.8371 -7.1383 -1.7017 0.9702
2.6821 -6.8656 -1.7017 0.9702
3.4882 -6.4933 -1.7017 0.9702
4.2436 -6.0267 -1.7017 0.9702
4.9375 -5.4728 -1.7017 0.9702
5.5597 -4.8394 -1.7017 0.9702
6.1012 -4.1357 -1.7017 0.9702
6.5543 -3.3721 -1.7017 0.9702
6.9122 -2.5596 -1.7017 0.9702
7.1698 -1.7099 -1.7017 0.9702
7.3234 -0.8354 -1.7017 0.9702
7.3707 0.0513 -1.7017 0.9702
7.3110 0.9372 -1.7017 0.9702
7.1453 1.8095 -1.7017 0.9702
6.3869 2.4667 -1.5807 0.9723
5.6036 2.9823 -1.4655 0.9743
5.5026 3.8428 -1.5495 0.9728
5.0006 4.4765 -1.5495 0.9728
4.4261 5.0454 -1.5495 0.9728
3.7873 5.5409 -1.5495 0.9728
3.0936 5.9561 -1.5495 0.9728
2.3550 6.2849 -1.5495 0.9728
1.5822 6.5225 -1.5495 0.9728
0.8266 7.0061 -1.6287 0.9715
-0.0228 7.3708 -1.7017 0.9702
-0.9089 7.3146 -1.7017 0.9702
-1.7818 7.1523 -1.7017 0.9702
-2.6289 6.8861 -1.7017 0.9702
-3.4378 6.5201 -1.7017 0.9702
-4.1968 6.0594 -1.7017 0.9702
-4.8950 5.5108 -1.7017 0.9702
-5.5221 4.8823 -1.7017 0.9702
-6.0690 4.1829 -1.7017 0.9702
-6.5280 3.4228 -1.7017 0.9702
-6.8922 2.6130 -1.7017 0.9702
-7.1564 1.7653 -1.7017 0.9702
-7.3167 0.8920 -1.7017 0.9702
-7.3709 0.0058 -1.7017 0.9702
-7.3181 -0.8805 -1.7017 0.9702
-7.1591 -1.7541 -1.7017 0.9702
-6.8963 -2.6022 -1.7017 0.9702
-6.5333 -3.4125 -1.7017 0.9702
-6.0756 -4.1733 -1.7017 0.9702
-5.5297 -4.8736 -1.7017 0.9702
-4.9036 -5.5031 -1.7017 0.9702
-4.2063 -6.0528 -1.7017 0.9702
-3.4480 -6.5147 -1.7017 0.9702
-2.6397 -6.8820 -1.7017 0.9702
-1.7930 -7.1495 -1.7017 0.9702
-0.9203 -7.3132 -1.7017 0.9702
-0.0343 -7.3708 -1.7017 0.9702
0.8522 -7.3214 -1.7017 0.9702
1.7264 -7.1658 -1.7017 0.9702
2.5755 -6.9063 -1.7017 0.9702
3.3872 -6.5465 -1.7017 0.9702
4.1498 -6.0917 -1.7017 0.9702
4.8522 -5.5485 -1.7017 0.9702
5.4841 -4.9249 -1.7017 0.9702
6.0365 -4.2297 -1.7017 0.9702
6.5013 -3.4732 -1.7017 0.9702
6.8717 -2.6663 -1.7017 0.9702
7.1425 -1.8207 -1.7017 0.9702
7.3096 -0.9486 -1.7017 0.9702
7.3706 -0.0628 -1.7017 0.9702
7.3247 0.8239 -1.7017 0.9702
7.1725 1.6986 -1.7017 0.9702
6.5737 2.4225 -1.6174 0.9716
5.6033 2.8717 -1.4536 0.9745
5.5615 3.7571 -1.5495 0.9728
5.0693 4.3986 -1.5495 0.9728
4.5037 4.9762 -1.5495 0.9728
3.8727 5.4816 -1.5495 0.9728
3.1854 5.9075 -1.5495 0.9728
2.4520 6.2477 -1.5495 0.9728
1.6830 6.4972 -1.5495 0.9728
0.9132 6.8291 -1.5907 0.9721
0.0914 7.3703 -1.7017 0.9702
-0.7955 7.3278 -1.7017 0.9702
-1.6708 7.1790 -1.7017 0.9702
-2.5219 6.9260 -1.7017 0.9702
-3.3364 6.5725 -1.7017 0.9702
-4.1025 6.1237 -1.7017 0.9702
-4.8091 5.5859 -1.7017 0.9702
-5.4458 4.9672 -1.7017 0.9702
-6.0036 4.2763 -1.7017 0.9702
-6.4742 3.5234 -1.7017 0.9702
-6.8509 2.7194 -1.7017 0.9702
-7.1282 1.8759 -1.7017 0.9702
-7.3020 1.0052 -1.7017 0.9702
-7.3699 0.1199 -1.7017 0.9702
-7.3308 -0.7671 -1.7017 0.9702
-7.1854 -1.6430 -1.7017 0.9702
-6.9357 -2.4951 -1.7017 0.9702
-6.5854 -3.3109 -1.7017 0.9702
-6.1395 -4.0788 -1.7017 0.9702
-5.6045 -4.7874 -1.7017 0.9702
-4.9882 -5.4265 -1.7017 0.9702
-4.2995 -5.9870 -1.7017 0.9702
-3.5484 -6.4605 -1.7017 0.9702
-2.7459 -6.8403 -1.7017 0.9702
-1.9035 -7.1208 -1.7017 0.9702
-1.0334 -7.2981 -1.7017 0.9702
-0.1484 -7.3694 -1.7017 0.9702
0.7388 -7.3338 -1.7017 0.9702
1.6152 -7.1917 -1.7017 0.9702
2.4682 -6.9453 -1.7017 0.9702
3.2854 -6.5982 -1.7017 0.9702
4.0550 -6.1552 -1.7017 0.9702
4.7657 -5.6230 -1.7017 0.9702
5.4072 -5.0092 -1.7017 0.9702
5.9703 -4.3227 -1.7017 0.9702
6.4467 -3.5734 -1.7017 0.9702
6.8296 -2.7724 -1.7017 0.9702
7.1134 -1.9310 -1.7017 0.9702
7.2940 -1.0617 -1.7017 0.9702
7.3687 -0.1769 -1.7017 0.9702
7.3366 0.7104 -1.7017 0.9702
7.1979 1.5874 -1.7017 0.9702
6.7800 2.3800 -1.6589 0.9709
5.6548 2.7884 -1.4556 0.9744
5.6189 3.6706 -1.5495 0.9728
5.1368 4.3196 -1.5495 0.9728
4.5802 4.9059 -1.5495 0.9728
3.9571 5.4210 -1.5495 0.9728
3.2765 5.8575 -1.5495 0.9728
2.5484 6.2090 -1.5495 0.9728
1.7834 6.4703 -1.5495 0.9728
0.9972 6.6698 -1.5569 0.9727
0.2054 7.3657 -1.7012 0.9702
-0.6820 7.3393 -1.7017 0.9702
-1.5595 7.2040 -1.7017 0.9702
-2.4144 6.9642 -1.7017 0.9702
-3.2343 6.6234 -1.7017 0.9702
-4.0072 6.1864 -1.7017 0.9702
-4.7220 5.6597 -1.7017 0.9702
-5.3683 5.0509 -1.7017 0.9702
-5.9366 4.3687 -1.7017 0.9702
-6.4189 3.6232 -1.7017 0.9702
-6.8080 2.8251 -1.7017 0.9702
-7.0983 1.9860 -1.7017 0.9702
-7.2856 1.1181 -1.7017 0.9702
-7.3672 0.2340 -1.7017 0.9702
-7.3418 -0.6535 -1.7017 0.9702
-7.2100 -1.5316 -1.7017 0.9702
-6.9735 -2.3874 -1.7017 0.9702
-6.6359 -3.2086 -1.7017 0.9702
-6.2019 -3.9832 -1.7017 0.9702
-5.6780 -4.7000 -1.7017 0.9702
-5.0716 -5.3487 -1.7017 0.9702
-4.3917 -5.9197 -1.7017 0.9702
-3.6480 -6.4048 -1.7017 0.9702
-2.8515 -6.7970 -1.7017 0.9702
-2.0135 -7.0905 -1.7017 0.9702
-1.1463 -7.2812 -1.7017 0.9702
-0.2625 -7.3662 -1.7017 0.9702
0.6251 -7.3443 -1.7017 0.9702
1.5037 -7.2159 -1.7017 0.9702
2.3604 -6.9827 -1.7017 0.9702
3.1829 -6.6482 -1.7017 0.9702
3.9592 -6.2173 -1.7017 0.9702
4.6780 -5.6961 -1.7017 0.9702
5.3290 -5.0923 -1.7017 0.9702
5.9026 -4.4146 -1.7017 0.9702
6.3906 -3.6728 -1.7017 0.9702
6.7859 -2.8777 -1.7017 0.9702
7.0827 -2.0409 -1.7017 0.9702
7.2767 -1.1745 -1.7017 0.9702
7.3651 -0.2910 -1.7017 0.9702
7.3467 0.5967 -1.7017 0.9702
7.2216 1.4757 -1.7017 0.9702
6.9618 2.3234 -1.6944 0.9703
5.8729 2.7838 -1.5005 0.9737
5.6751 3.5831 -1.5495 0.9728
5.2031 4.2395 -1.5495 0.9728
4.6556 4.8344 -1.5495 0.9728
4.0405 5.3591 -1.5495 0.9728
3.3668 5.8061 -1.5495 0.9728
2.6443 6.1688 -1.5495 0.9728
1.8833 6.4420 -1.5495 0.9728
1.0951 6.6217 -1.5495 0.9728
0.3191 7.3540 -1.6994 0.9702
-0.5683 7.3489 -1.7017 0.9702
-1.4478 7.2273 -1.7017 0.9702
-2.3063 7.0008 -1.7017 0.9702
-3.1313 6.6727 -1.7017 0.9702
-3.9109 6.2477 -1.7017 0.9702
-4.6338 5.7322 -1.7017 0.9702
-5.2894 5.1334 -1.7017 0.9702
-5.8683 4.4601 -1.7017 0.9702
-6.3620 3.7222 -1.7017 0.9702
-6.7634 2.9302 -1.7017 0.9702
-7.0667 2.0957 -1.7017 0.9702
-7.2674 1.2308 -1.7017 0.9702
-7.3627 0.3480 -1.7017 0.9702
-7.3511 -0.5398 -1.7017 0.9702
-7.2328 -1.4198 -1.7017 0.9702
-7.0096 -2.2792 -1.7017 0.9702
-6.6847 -3.1055 -1.7017 0.9702
-6.2628 -3.8867 -1.7017 0.9702
-5.7500 -4.6116 -1.7017 0.9702
-5.1538 -5.2695 -1.7017 0.9702
-4.4828 -5.8510 -1.7017 0.9702
-3.7468 -6.3476 -1.7017 0.9702
-2.9563 -6.7520 -1.7017 0.9702
-2.1230 -7.0585 -1.7017 0.9702
-1.2589 -7.2626 -1.7017 0.9702
-0.3765 -7.3612 -1.7017 0.9702
0.5113 -7.3531 -1.7017 0.9702
1.3918 -7.2383 -1.7017 0.9702
2.2520 -7.0184 -1.7017 0.9702
3.0796 -6.6967 -1.7017 0.9702
3.8625 -6.2778 -1.7017 0.9702
4.5893 -5.7679 -1.7017 0.9702
5.2495 -5.1742 -1.7017 0.9702
5.8336 -4.5054 -1.7017 0.9702
6.3330 -3.7713 -1.7017 0.9702
6.7405 -2.9825 -1.7017 0.9702
7.0502 -2.1504 -1.7017 0.9702
7.2576 -1.2870 -1.7017 0.9702
7.3597 -0.4050 -1.7017 0.9702
7.3550 0.4829 -1.7017 0.9702
7.2436 1.3638 -1.7017 0.9702
7.0040 2.2175 -1.6961 0.9703
6.1086 2.7805 -1.5495 0.9728
5.7299 3.4949 -1.5495 0.9728
5.2681 4.1585 -1.5495 0.9728
4.7299 4.7617 -1.5495 0.9728
4.1230 5.2959 -1.5495 0.9728
3.4563 5.7532 -1.5495 0.9728
2.7394 6.1271 -1.5495 0.9728
1.9828 6.4120 -1.5495 0.9728
1.1975 6.6039 -1.5495 0.9728
0.4325 7.3407 -1.6977 0.9703
-0.4544 7.3568 -1.7017 0.9702
-1.3357 7.2488 -1.7017 0.9702
-2.1976 7.0356 -1.7017 0.9702
-3.0276 6.7203 -1.7017 0.9702
-3.8137 6.3075 -1.7017 0.9702
-4.5445 5.8032 -1.7017 0.9702
-5.2093 5.2147 -1.7017 0.9702
-5.7985 4.5505 -1.7017 0.9702
-6.3036 3.8202 -1.7017 0.9702
-6.7172 3.0345 -1.7017 0.9702
-7.0334 2.2048 -1.7017 0.9702
-7.2475 1.3431 -1.7017 0.9702
-7.3564 0.4620 -1.7017 0.9702
-7.3585 -0.4259 -1.7017 0.9702
-7.2540 -1.3076 -1.7017 0.9702
-7.0441 -2.1704 -1.7017 0.9702
-6.7320 -3.0016 -1.7017 0.9702
-6.3222 -3.7893 -1.7017 0.9702
-5.8208 -4.5220 -1.7017 0.9702
-5.2348 -5.1891 -1.7017 0.9702
-4.5729 -5.7809 -1.7017 0.9702
-3.8446 -6.2888 -1.7017 0.9702
-3.0605 -6.7054 -1.7017 0.9702
-2.2321 -7.0248 -1.7017 0.9702
-1.3712 -7.2422 -1.7017 0.9702
-0.4904 -7.3545 -1.7017 0.9702
0.3974 -7.3601 -1.7017 0.9702
1.2795 -7.2590 -1.7017 0.9702
2.1431 -7.0524 -1.7017 0.9702
2.9755 -6.7436 -1.7017 0.9702
3.7648 -6.3369 -1.7017 0.9702
4.4994 -5.8382 -1.7017 0.9702
5.1688 -5.2548 -1.7017 0.9702
5.7631 -4.5952 -1.7017 0.9702
6.2739 -3.8689 -1.7017 0.9702
6.6935 -3.0865 -1.7017 0.9702
7.0161 -2.2592 -1.7017 0.9702
7.2368 -1.3992 -1.7017 0.9702
7.3526 -0.5189 -1.7017 0.9702
7.3616 0.3689 -1.7017 0.9702
7.2639 1.2514 -1.7017 0.9702
7.0446 2.1110 -1.6978 0.9703
6.1509 2.6856 -1.5495 0.9728
5.6117 3.3047 -1.5035 0.9736
5.3319 4.0764 -1.5495 0.9728
4.8030 4.6879 -1.5495 0.9728
4.2045 5.2314 -1.5495 0.9728
3.5450 5.6990 -1.5495 0.9728
2.8340 6.0839 -1.5495 0.9728
2.0819 6.3806 -1.5495 0.9728
1.2996 6.5846 -1.5495 0.9728
0.5455 7.3260 -1.6960 0.9703
-0.3405 7.3630 -1.7017 0.9702
-1.2233 7.2686 -1.7017 0.9702
-2.0884 7.0688 -1.7017 0.9702
-2.9232 6.7664 -1.7017 0.9702
-3.7156 6.3658 -1.7017 0.9702
-4.4541 5.8729 -1.7017 0.9702
-5.1279 5.2947 -1.7017 0.9702
-5.7274 4.6397 -1.7017 0.9702
-6.2437 3.9174 -1.7017 0.9702
-6.6694 3.1382 -1.7017 0.9702
-6.9984 2.3135 -1.7017 0.9702
-7.2258 1.4552 -1.7017 0.9702
-7.3483 0.5758 -1.7017 0.9702
-7.3643 -0.3119 -1.7017 0.9702
-7.2733 -1.1952 -1.7017 0.9702
-7.0768 -2.0610 -1.7017 0.9702
-6.7777 -2.8970 -1.7017 0.9702
-6.3802 -3.6910 -1.7017 0.9702
-5.8901 -4.4313 -1.7017 0.9702
-5.3145 -5.1074 -1.7017 0.9702
-4.6618 -5.7094 -1.7017 0.9702
-3.9415 -6.2285 -1.7017 0.9702
-3.1640 -6.6573 -1.7017 0.9702
-2.3405 -6.9894 -1.7017 0.9702
-1.4831 -7.2201 -1.7017 0.9702
-0.6042 -7.3461 -1.7017 0.9702
0.2834 -7.3654 -1.7017 0.9702
1.1670 -7.2779 -1.7017 0.9702
2.0337 -7.0848 -1.7017 0.9702
2.8708 -6.7888 -1.7017 0.9702
3.6662 -6.3944 -1.7017 0.9702
4.4085 -5.9072 -1.7017 0.9702
5.0868 -5.3342 -1.7017 0.9702
5.6913 -4.6839 -1.7017 0.9702
6.2132 -3.9656 -1.7017 0.9702
6.6449 -3.1897 -1.7017 0.9702
6.9803 -2.3676 -1.7017 0.9702
7.2143 -1.5111 -1.7017 0.9702
7.3437 -0.6327 -1.7017 0.9702
7.3665 0.2549 -1.7017 0.9702
7.2824 1.1388 -1.7017 0.9702
7.0837 2.0037 -1.6996 0.9702
6.1917 2.5901 -1.5495 0.9728
5.6041 3.1844 -1.4881 0.9739
5.3943 3.9934 -1.5495 0.9728
4.8750 4.6130 -1.5495 0.9728
4.2850 5.1657 -1.5495 0.9728
3.6328 5.6435 -1.5495 0.9728
2.9278 6.0393 -1.5495 0.9728
2.1804 6.3476 -1.5495 0.9728
1.4014 6.5637 -1.5495 0.9728
0.6582 7.3096 -1.6944 0.9703
-0.2264 7.3674 -1.7017 0.9702
-1.1106 7.2867 -1.7017 0.9702
-1.9787 7.1003 -1.7017 0.9702
-2.8181 6.8109 -1.7017 0.9702
-3.6166 6.4226 -1.7017 0.9702
-4.3626 5.9411 -1.7017 0.9702
-5.0454 5.3735 -1.7017 0.9702
-5.6549 4.7278 -1.7017 0.9702
-6.1823 4.0136 -1.7017 0.9702
-6.6200 3.2411 -1.7017 0.9702
-6.9617 2.4216 -1.7017 0.9702
-7.2024 1.5669 -1.7017 0.9702
-7.3385 0.6895 -1.7017 0.9702
-7.3682 -0.1979 -1.7017 0.9702
-7.2910 -1.0824 -1.7017 0.9702
-7.1079 -1.9513 -1.7017 0.9702
-6.8217 -2.7918 -1.7017 0.9702
-6.4365 -3.5917 -1.7017 0.9702
-5.9580 -4.3396 -1.7017 0.9702
-5.3929 -5.0245 -1.7017 0.9702
-4.7497 -5.6365 -1.7017 0.9702
-4.0375 -6.1667 -1.7017 0.9702
-3.2667 -6.6075 -1.7017 0.9702
-2.4485 -6.9523 -1.7017 0.9702
-1.5948 -7.1963 -1.7017 0.9702
-0.7179 -7.3358 -1.7017 0.9702
0.1694 -7.3689 -1.7017 0.9702
1.0542 -7.2951 -1.7017 0.9702
1.9237 -7.1154 -1.7017 0.9702
2.7653 -6.8325 -1.7017 0.9702
3.5668 -6.4504 -1.7017 0.9702
4.3165 -5.9747 -1.7017 0.9702
5.0036 -5.4124 -1.7017 0.9702
5.6181 -4.7715 -1.7017 0.9702
6.1511 -4.0613 -1.7017 0.9702
6.5948 -3.2922 -1.7017 0.9702
6.9428 -2.4754 -1.7017 0.9702
7.1900 -1.6226 -1.7017 0.9702
7.3330 -0.7463 -1.7017 0.9702
7.3695 0.1408 -1.7017 0.9702
6.2372 1.1958 -1.7017 0.9740
6.0482 1.9371 -1.7017 0.9740
5.7137 2.6238 -1.6847 0.9743
4.9269 3.0276 -1.5495 0.9763
4.5271 3.5981 -1.5495 0.9763
4.0616 4.1163 -1.5495 0.9763
3.5372 4.5748 -1.5495 0.9763
2.9615 4.9670 -1.5495 0.9763
2.3428 5.2870 -1.5495 0.9763
1.6957 5.5488 -1.5547 0.9763
1.1083 6.2305 -1.6957 0.9741
0.3524 6.3410 -1.7017 0.9740
-0.4126 6.3374 -1.7017 0.9740
-1.1716 6.2418 -1.7017 0.9740
-1.9137 6.0556 -1.7017 0.9740
-2.6279 5.7816 -1.7017 0.9740
-3.3040 5.4237 -1.7017 0.9740
-3.9322 4.9871 -1.7017 0.9740
-4.5033 4.4781 -1.7017 0.9740
-0.7912 0.6167 -0.2688 0.9959
-0.8455 0.5085 -0.2644 0.9959
-0.8845 0.3960 -0.2597 0.9960
-0.8706 0.2697 -0.2442 0.9962
-0.9146 0.1664 -0.2491 0.9962
-0.9301 0.0553 -0.2496 0.9961
-0.9301 -0.0569 -0.2497 0.9961
-0.9141 -0.1679 -0.2490 0.9962
-0.8698 -0.2712 -0.2441 0.9962
-0.8843 -0.3978 -0.2598 0.9960
-0.8445 -0.5100 -0.2643 0.9959
-0.7906 -0.6185 -0.2690 0.9959
-4.4954 -4.4860 -1.7017 0.9740
-3.9234 -4.9940 -1.7017 0.9740
-3.2945 -5.4295 -1.7017 0.9740
-2.6177 -5.7862 -1.7017 0.9740
-1.9030 -6.0590 -1.7017 0.9740
-1.1607 -6.2439 -1.7017 0.9740
-0.4015 -6.3381 -1.7017 0.9740
0.3636 -6.3404 -1.7017 0.9740
1.1233 -6.2507 -1.7017 0.9740
1.8667 -6.0703 -1.7017 0.9740
2.5831 -5.8018 -1.7017 0.9740
3.2620 -5.4491 -1.7017 0.9740
3.8935 -5.0173 -1.7017 0.9740
4.4685 -4.5128 -1.7017 0.9740
4.9787 -3.9427 -1.7017 0.9740
5.4167 -3.3155 -1.7017 0.9740
5.7761 -2.6401 -1.7017 0.9740
6.0516 -1.9264 -1.7017 0.9740
6.2393 -1.1848 -1.7017 0.9740
6.3365 -0.4260 -1.7017 0.9740
6.3418 0.3390 -1.7017 0.9740
6.2550 1.0991 -1.7017 0.9740
6.0775 1.8432 -1.7017 0.9740
5.7884 2.5503 -1.6949 0.9741
4.9732 2.9510 -1.5495 0.9763
4.5823 3.5276 -1.5495 0.9763
4.1249 4.0529 -1.5495 0.9763
3.6076 4.5195 -1.5495 0.9763
3.0380 4.9205 -1.5495 0.9763
2.4243 5.2501 -1.5495 0.9763
1.7755 5.5035 -1.5495 0.9763
1.2038 6.2081 -1.6944 0.9742
0.4505 6.3348 -1.7017 0.9740
-0.3145 6.3430 -1.7017 0.9740
-1.0749 6.2592 -1.7017 0.9740
-1.8197 6.0846 -1.7017 0.9740
-2.5381 5.8216 -1.7017 0.9740
-3.2197 5.4742 -1.7017 0.9740
-3.8545 5.0473 -1.7017 0.9740
-4.4335 4.5472 -1.7017 0.9740
-4.9481 3.9812 -1.7017 0.9740
-0.8367 0.5211 -0.2641 0.9959
-0.8825 0.4117 -0.2609 0.9960
-0.8631 0.2821 -0.2433 0.9962
-0.9104 0.1802 -0.2487 0.9962
-0.9300 0.0698 -0.2499 0.9961
-0.9297 -0.0425 -0.2494 0.9962
-0.9179 -0.1540 -0.2494 0.9962
-0.8769 -0.2586 -0.2450 0.9962
-0.8856 -0.3820 -0.2584 0.9960
-0.8526 -0.4970 -0.2644 0.9959
-0.7955 -0.6027 -0.2674 0.9959
-4.5644 -4.4158 -1.7017 0.9740
-4.0003 -4.9326 -1.7017 0.9740
-3.3782 -5.3778 -1.7017 0.9740
-2.7070 -5.7450 -1.7017 0.9740
-1.9966 -6.0288 -1.7017 0.9740
