ply
format ascii 1.0
element vertex 1533
property float32 x
property float32 y
property float32 z
property float32 I
end_header
-5.1887 18.1261 -0.3291 0.9273
-27.5371 65.2500 -1.2362 0.7533
-27.8587 48.6680 -0.9788 0.7990
-27.7691 37.2622 -0.8112 0.8303
-27.8160 29.2080 -0.7040 0.8510
-28.0164 23.0878 -0.6337 0.8648
-27.9057 17.8358 -0.5781 0.8759
-25.5359 12.2772 -0.4946 0.8928
-29.1760 9.9156 -0.5379 0.8840
-35.1758 7.3894 -0.6274 0.8661
-88.4403 7.6701 -1.5495 0.7011
-88.7209 -3.0210 -1.5495 0.7011
-87.7137 -13.6685 -1.5495 0.7011
-30.8117 -8.6980 -0.5588 0.8798
-66.4845 -27.7716 -1.2577 0.7496
-19.1653 -10.8776 -0.3847 0.9156
-13.4347 -9.9356 -0.2917 0.9353
-31.3651 -29.6519 -0.7534 0.8414
-26.2211 -31.5820 -0.7165 0.8486
-31.4132 -48.7540 -1.0123 0.7929
-34.9719 -72.0619 -1.3981 0.7258
-27.7124 -80.5714 -1.4872 0.7112
-20.3922 -95.3353 -1.7017 0.6770
-8.7796 -97.0957 -1.7017 0.6770
0.9166 -30.1689 -0.5268 0.8863
1.2529 -8.2390 -0.1455 0.9672
10.2256 -36.7377 -0.6656 0.8585
12.3716 -29.9255 -0.5652 0.8785
16.8471 -29.9380 -0.5996 0.8716
22.1839 -30.2275 -0.6545 0.8607
28.1396 -29.9848 -0.7178 0.8483
36.1014 -30.1976 -0.8215 0.8284
46.2185 -30.0197 -0.9620 0.8021
61.8004 -30.2724 -1.2012 0.7593
64.4986 -22.4489 -1.1921 0.7609
94.6715 -20.6135 -1.6912 0.6787
77.2253 -7.2683 -1.3539 0.7332
97.4571 2.6033 -1.7017 0.6770
31.4819 4.6697 -0.5555 0.8804
38.3877 10.5334 -0.6948 0.8528
21.6484 8.8570 -0.4083 0.9107
16.0337 8.9455 -0.3205 0.9292
11.6923 8.5152 -0.2525 0.9438
9.6214 8.9633 -0.2295 0.9488
7.5583 8.9690 -0.2047 0.9542
5.8729 8.9699 -0.1871 0.9580
4.4366 8.9739 -0.1747 0.9607
3.1439 8.9274 -0.1652 0.9628
1.9576 8.8346 -0.1579 0.9644
1.4863 15.1947 -0.2665 0.9407
-0.1036 4.4967 -0.0785 0.9822
-13.9507 96.4885 -1.7017 0.6770
-25.4530 94.1106 -1.7017 0.6770
-27.5222 67.9798 -1.2801 0.7457
-27.9826 50.5908 -1.0091 0.7935
-10.4406 14.4471 -0.3111 0.9312
-27.8743 30.1418 -0.7166 0.8485
-27.9258 23.7090 -0.6394 0.8637
-28.0348 18.5028 -0.5863 0.8743
-28.0089 13.9755 -0.5464 0.8823
-29.3106 10.4432 -0.5431 0.8830
-33.2015 7.4845 -0.5941 0.8727
-88.3183 8.9662 -1.5495 0.7011
-88.7556 -1.7199 -1.5495 0.7011
-87.9047 -12.3810 -1.5495 0.7011
-86.6198 -23.0867 -1.5647 0.6986
-86.5108 -34.6558 -1.6267 0.6888
-19.1474 -10.4993 -0.3812 0.9163
-13.8136 -9.9059 -0.2967 0.9343
-31.3627 -28.7908 -0.7431 0.8434
-31.3846 -36.6929 -0.8428 0.8243
-31.4089 -47.2124 -0.9898 0.7970
-18.9665 -37.6656 -0.7361 0.8448
-33.0571 -91.7163 -1.7017 0.6770
-21.7876 -95.0261 -1.7017 0.6770
-10.2022 -96.9566 -1.7017 0.6770
0.4697 -29.8924 -0.5218 0.8873
4.1360 -30.1654 -0.5315 0.8853
9.7996 -37.3164 -0.6734 0.8570
11.8604 -29.9241 -0.5619 0.8792
16.4220 -30.2106 -0.6002 0.8715
21.4982 -30.2120 -0.6472 0.8621
27.5526 -30.2355 -0.7140 0.8490
34.8012 -29.9879 -0.8019 0.8321
45.0862 -30.2333 -0.9475 0.8048
61.3547 -31.1775 -1.2013 0.7593
58.1920 -21.2153 -1.0812 0.7805
88.3369 -20.5949 -1.5833 0.6957
65.7539 -7.1627 -1.1545 0.7675
97.4848 1.1744 -1.7017 0.6770
87.9930 11.7364 -1.5495 0.7011
40.1190 10.3786 -0.7233 0.8472
22.7657 8.9268 -0.4268 0.9068
16.4987 8.8903 -0.3271 0.9278
11.6916 8.2551 -0.2498 0.9444
9.9079 8.9625 -0.2332 0.9480
7.7855 8.9684 -0.2073 0.9536
6.0285 8.9193 -0.1879 0.9578
4.6013 8.9734 -0.1760 0.9605
3.2917 8.9270 -0.1661 0.9627
2.0938 8.8342 -0.1585 0.9643
1.7776 15.7813 -0.2772 0.9384
-0.4731 56.4467 -0.9853 0.7979
-2.8955 22.3326 -0.3931 0.9138
-3.2714 12.8398 -0.2313 0.9484
-27.5062 70.9118 -1.3276 0.7377
-27.6111 51.6939 -1.0230 0.7910
-10.0173 14.2982 -0.3047 0.9325
-27.8784 31.0472 -0.7283 0.8463
-27.9682 24.4597 -0.6485 0.8619
-28.0470 19.1068 -0.5924 0.8730
-27.8393 14.4043 -0.5471 0.8821
-28.9121 10.7813 -0.5386 0.8839
-32.3431 7.7910 -0.5807 0.8754
-88.1774 10.2598 -1.5495 0.7011
-88.7713 -0.4188 -1.5495 0.7011
-34.2651 -4.3149 -0.6028 0.8710
-86.6322 -21.7348 -1.5590 0.6995
-86.5247 -33.1981 -1.6176 0.6902
-19.1454 -10.1361 -0.3781 0.9170
-38.6270 -26.8514 -0.8211 0.8284
-31.3579 -27.9504 -0.7332 0.8453
-31.3817 -35.6189 -0.8286 0.8270
-31.4098 -45.7454 -0.9686 0.8009
-18.8783 -36.1609 -0.7120 0.8494
-34.3982 -91.2218 -1.7017 0.6770
-23.1785 -94.6965 -1.7017 0.6770
-11.6223 -96.7966 -1.7017 0.6770
0.0315 -29.8912 -0.5217 0.8873
6.3358 -51.8476 -0.9117 0.8114
7.4535 -30.1766 -0.5426 0.8831
11.3552 -29.9227 -0.5586 0.8798
15.8460 -30.1975 -0.5953 0.8725
21.4471 -31.0954 -0.6593 0.8597
27.1617 -30.6989 -0.7155 0.8488
33.8485 -30.0430 -0.7900 0.8344
32.3068 -22.3572 -0.6858 0.8546
57.0493 -30.0499 -1.1256 0.7726
82.4835 -31.4489 -1.5408 0.7025
86.1490 -21.4213 -1.5495 0.7011
59.1041 -7.3164 -1.0395 0.7880
97.4915 -0.2547 -1.7017 0.6770
42.3955 5.0231 -0.7452 0.8430
42.4585 10.3221 -0.7627 0.8396
23.7783 8.9240 -0.4433 0.9034
16.9072 8.7931 -0.3326 0.9266
11.8644 8.1191 -0.2509 0.9441
10.2038 8.9617 -0.2370 0.9471
8.0185 8.9678 -0.2100 0.9530
6.2205 8.9188 -0.1898 0.9574
4.7429 8.9247 -0.1764 0.9604
3.4603 8.9766 -0.1679 0.9622
2.2310 8.8339 -0.1590 0.9642
1.7724 13.9000 -0.2446 0.9455
0.3741 59.5625 -1.0397 0.7880
-2.5784 22.4658 -0.3947 0.9135
-3.0633 12.8048 -0.2298 0.9487
-27.4889 74.0696 -1.3790 0.7290
-27.6010 53.5498 -1.0516 0.7858
-9.7105 14.3020 -0.3017 0.9332
-27.8946 31.9968 -0.7409 0.8438
-27.8884 25.1208 -0.6552 0.8606
-27.9063 19.6162 -0.5954 0.8724
-28.0059 15.0150 -0.5547 0.8806
-28.7514 11.2043 -0.5386 0.8839
-31.6011 8.1041 -0.5694 0.8776
-56.6504 7.4349 -0.9973 0.7957
-88.0536 0.8758 -1.5370 0.7031
-34.1549 -3.7932 -0.5998 0.8716
-86.6473 -20.3934 -1.5538 0.7004
-86.5385 -31.7562 -1.6090 0.6916
-19.1408 -9.7771 -0.3752 0.9176
-39.8565 -26.8480 -0.8388 0.8251
-31.3492 -27.1286 -0.7236 0.8472
-31.3788 -34.5803 -0.8151 0.8296
-31.4059 -44.3324 -0.9483 0.8046
-18.9119 -34.9659 -0.6939 0.8530
-32.5358 -82.5950 -1.5495 0.7011
-24.5640 -94.3465 -1.7017 0.6770
-13.0402 -96.6158 -1.7017 0.6770
-0.4068 -29.8900 -0.5218 0.8873
6.1780 -57.5502 -1.0103 0.7933
6.9876 -30.1846 -0.5408 0.8834
10.9568 -30.2004 -0.5608 0.8794
15.7374 -31.0902 -0.6082 0.8699
24.5782 -36.7771 -0.7721 0.8378
32.3286 -37.6361 -0.8660 0.8200
20.2136 -18.4779 -0.4780 0.8962
44.2071 -31.5611 -0.9481 0.8047
55.6318 -30.3534 -1.1062 0.7761
20.4333 -8.1357 -0.3839 0.9158
85.8256 -22.6821 -1.5495 0.7011
52.4808 -7.2793 -0.9248 0.8090
97.4773 -1.6840 -1.7017 0.6770
42.4926 4.4041 -0.7457 0.8429
45.4527 10.3466 -0.8137 0.8299
24.8728 8.9209 -0.4612 0.8997
17.7986 8.9276 -0.3476 0.9234
12.2442 8.1180 -0.2564 0.9429
10.5097 8.9608 -0.2411 0.9462
8.2576 8.9671 -0.2128 0.9524
6.4165 8.9183 -0.1918 0.9570
4.9117 8.9243 -0.1778 0.9601
3.6121 8.9761 -0.1689 0.9620
2.3949 8.9295 -0.1614 0.9637
1.9564 13.7346 -0.2422 0.9460
0.2775 13.2512 -0.2314 0.9484
-9.6952 97.0086 -1.7017 0.6770
-2.8922 12.9239 -0.2312 0.9484
-27.4703 77.4835 -1.4350 0.7197
-27.5902 55.5122 -1.0820 0.7804
-9.4526 14.3710 -0.3002 0.9335
-27.8826 32.9460 -0.7534 0.8414
-27.7353 25.7293 -0.6604 0.8595
-27.8280 20.1770 -0.6000 0.8715
-27.9757 15.5310 -0.5585 0.8798
-28.6163 11.6377 -0.5392 0.8837
-30.8854 8.4051 -0.5587 0.8798
-50.4377 7.3731 -0.8897 0.8155
-88.0148 2.1659 -1.5368 0.7031
-34.2403 -3.2952 -0.6004 0.8714
-86.7000 -19.0689 -1.5495 0.7011
-86.5520 -30.3288 -1.6008 0.6929
-19.3698 -9.5387 -0.3769 0.9172
-41.1404 -26.8444 -0.8575 0.8216
-13.0077 -10.9270 -0.2965 0.9343
-31.3760 -33.5745 -0.8021 0.8321
-31.4021 -42.9775 -0.9291 0.8082
-19.3131 -34.4896 -0.6900 0.8537
-33.7433 -82.1091 -1.5495 0.7011
-25.9447 -93.9762 -1.7017 0.6770
-14.4550 -96.4143 -1.7017 0.6770
-2.7555 -97.4529 -1.7017 0.6770
5.9516 -64.3134 -1.1274 0.7723
1.7655 -8.1697 -0.1459 0.9671
10.4545 -30.1890 -0.5576 0.8800
17.8059 -36.4945 -0.7088 0.8501
23.6332 -36.5107 -0.7592 0.8403
31.3793 -37.6335 -0.8553 0.8220
19.6353 -18.4848 -0.4707 0.8977
40.7503 -30.0045 -0.8833 0.8167
55.6334 -31.4214 -1.1153 0.7744
20.1594 -8.3711 -0.3810 0.9164
85.4840 -23.9376 -1.5495 0.7011
63.8747 -9.8159 -1.1280 0.7722
97.4421 -3.1130 -1.7017 0.6770
45.8328 4.0720 -0.8032 0.8319
49.2530 10.4548 -0.8789 0.8176
26.0594 8.9176 -0.4808 0.8957
20.0471 9.6902 -0.3887 0.9148
13.9405 8.9513 -0.2892 0.9359
10.7986 8.9371 -0.2447 0.9455
8.5032 8.9664 -0.2157 0.9518
6.6168 8.9178 -0.1938 0.9565
5.1108 8.9720 -0.1802 0.9595
3.7658 8.9757 -0.1699 0.9618
2.5357 8.9291 -0.1620 0.9635
2.1149 13.4337 -0.2374 0.9470
0.4716 13.2418 -0.2313 0.9484
-8.2718 97.1403 -1.7017 0.6770
-19.8937 95.4406 -1.7017 0.6770
-27.4501 81.1869 -1.4959 0.7097
-27.5789 57.5930 -1.1146 0.7746
-9.2464 14.5168 -0.3004 0.9335
-27.8109 33.8554 -0.7648 0.8392
-27.9157 26.6685 -0.6739 0.8569
-27.8802 20.8452 -0.6076 0.8700
-27.9502 16.0574 -0.5626 0.8790
-28.4550 12.0611 -0.5395 0.8837
-30.3067 8.7267 -0.5505 0.8815
-45.6624 7.3603 -0.8073 0.8311
-88.7038 3.4848 -1.5495 0.7011
-35.8539 -2.9208 -0.6279 0.8660
-86.9702 -17.7959 -1.5495 0.7011
-86.5659 -28.9158 -1.5931 0.6941
-19.9203 -9.4494 -0.3848 0.9156
-42.4904 -26.8457 -0.8773 0.8179
-13.0189 -10.6149 -0.2932 0.9350
-31.3733 -32.6001 -0.7897 0.8344
-31.3985 -41.6757 -0.9108 0.8116
-19.9431 -34.4210 -0.6944 0.8529
-34.9432 -81.6057 -1.5495 0.7011
-27.3198 -93.5857 -1.7017 0.6770
-15.8671 -96.1920 -1.7017 0.6770
-3.4259 -79.7518 -1.3933 0.7266
5.4265 -69.7710 -1.2215 0.7558
1.6277 -8.1059 -0.1443 0.9675
10.0213 -30.3711 -0.5582 0.8799
17.1472 -36.4927 -0.7038 0.8510
18.9305 -30.2071 -0.6222 0.8671
24.4605 -30.2259 -0.6787 0.8559
19.4353 -18.8415 -0.4725 0.8974
39.5577 -30.0306 -0.8670 0.8198
35.7925 -20.9132 -0.7236 0.8472
69.5452 -30.0814 -1.3226 0.7385
85.1238 -25.1884 -1.5495 0.7011
50.5432 -8.5276 -0.8947 0.8146
97.3860 -4.5410 -1.7017 0.6770
59.6299 4.4180 -1.0437 0.7872
52.2605 10.2948 -0.9297 0.8081
26.8954 8.7653 -0.4938 0.8930
20.4664 9.5254 -0.3940 0.9136
14.2928 8.8844 -0.2938 0.9349
11.1541 8.9590 -0.2497 0.9444
8.7558 8.9657 -0.2187 0.9511
6.7479 8.8213 -0.1939 0.9565
5.2862 8.9715 -0.1818 0.9592
3.9213 8.9753 -0.1710 0.9616
2.6776 8.9287 -0.1627 0.9634
2.1958 12.7301 -0.2255 0.9496
0.6661 13.2413 -0.2314 0.9483
-3.9681 56.3632 -0.9863 0.7977
-18.4922 95.7220 -1.7017 0.6770
-27.1978 84.5032 -1.5495 0.7011
-27.5668 59.8025 -1.1494 0.7684
-9.1597 14.8570 -0.3047 0.9326
-27.7836 34.8516 -0.7780 0.8367
-27.8896 27.4370 -0.6829 0.8551
-27.9378 21.5338 -0.6157 0.8684
-27.9364 16.5990 -0.5672 0.8781
-28.3755 12.5213 -0.5414 0.8833
-29.8365 9.0671 -0.5443 0.8827
-41.4695 7.3096 -0.7350 0.8450
-88.6432 4.7850 -1.5495 0.7011
-88.5753 -5.9098 -1.5495 0.7011
-87.2218 -16.5188 -1.5495 0.7011
-86.5788 -27.5162 -1.5857 0.6953
-58.7058 -26.8006 -1.1264 0.7725
-43.8966 -26.8418 -0.8981 0.8140
-13.0353 -10.3138 -0.2901 0.9357
-31.3706 -31.6554 -0.7779 0.8367
-31.4997 -40.5591 -0.8964 0.8143
-31.4234 -52.4476 -1.0672 0.7830
-36.1359 -81.0846 -1.5495 0.7011
-28.6885 -93.1753 -1.7017 0.6770
-17.2753 -95.9491 -1.7017 0.6770
-0.4966 -8.6132 -0.1506 0.9661
4.4115 -69.9793 -1.2239 0.7554
1.5015 -8.0901 -0.1436 0.9676
11.4459 -36.4768 -0.6673 0.8582
16.6234 -36.7691 -0.7043 0.8509
18.3256 -30.2175 -0.6169 0.8682
23.5243 -29.9566 -0.6648 0.8587
19.4163 -19.3832 -0.4789 0.8961
10.6408 -8.3268 -0.2358 0.9474
50.0463 -30.2348 -1.0206 0.7914
67.2889 -30.2838 -1.2880 0.7444
84.7453 -26.4338 -1.5495 0.7011
95.8850 -17.6276 -1.7017 0.6770
97.3090 -5.9683 -1.7017 0.6770
88.6163 5.2602 -1.5495 0.7011
59.2133 10.7654 -1.0505 0.7860
30.5188 9.4535 -0.5577 0.8800
20.7478 9.2886 -0.3968 0.9131
14.7693 8.8831 -0.3008 0.9334
11.4941 8.9581 -0.2544 0.9434
9.0157 8.9650 -0.2219 0.9504
6.9548 8.8207 -0.1961 0.9561
5.4647 8.9710 -0.1834 0.9588
4.0788 8.9749 -0.1721 0.9613
2.8208 8.9283 -0.1634 0.9632
2.3864 12.7184 -0.2259 0.9495
0.8608 13.2407 -0.2316 0.9483
-3.7028 66.5005 -1.1626 0.7661
-17.0872 95.9828 -1.7017 0.6770
-25.9560 84.8929 -1.5495 0.7011
-27.5540 62.1566 -1.1868 0.7619
-9.1757 15.3832 -0.3126 0.9308
-27.8697 36.0310 -0.7951 0.8334
-27.8374 28.2009 -0.6917 0.8534
-27.9036 22.1672 -0.6220 0.8671
-27.9646 17.1755 -0.5728 0.8770
-28.1188 12.9037 -0.5400 0.8836
-29.5562 9.4574 -0.5417 0.8832
-38.3530 7.3419 -0.6816 0.8554
-87.4279 6.0058 -1.5296 0.7043
-88.6525 -4.6105 -1.5495 0.7011
-87.4547 -15.2378 -1.5495 0.7011
-86.5915 -26.1288 -1.5788 0.6964
-61.0452 -26.7941 -1.1637 0.7659
-45.3710 -26.8377 -0.9201 0.8099
-13.1938 -10.1283 -0.2903 0.9356
-31.3681 -30.7382 -0.7666 0.8389
-31.3917 -39.2193 -0.8769 0.8179
-31.5234 -50.9063 -1.0451 0.7870
6.4607 8.9181 -0.5771 0.9568
4.9764 8.9724 -0.5377 0.9597
3.6462 8.9761 -0.5077 0.9619
2.2081 8.1269 -0.4414 0.9668
1.9657 13.4846 -0.7142 0.9469
0.3206 13.2422 -0.6942 0.9483
-2.2020 22.7846 -1.1997 0.9124
-2.8405 12.8903 -0.6918 0.9485
-10.7502 30.6395 -1.7017 0.8780
-14.3568 29.1244 -1.7017 0.8780
-8.9314 13.6757 -0.8560 0.9367
-20.8955 24.8541 -1.7017 0.8780
-23.7328 22.1609 -1.7017 0.8780
-24.8644 18.1523 -1.6134 0.8840
-25.8032 14.4354 -1.5495 0.8883
-27.3519 11.2276 -1.5495 0.8883
-28.5036 7.8569 -1.5495 0.8883
-29.7371 4.4462 -1.5758 0.8865
-32.4581 0.9048 -1.7017 0.8780
-32.3314 -3.0051 -1.7017 0.8780
-31.0291 -6.7184 -1.6638 0.8806
-30.6787 -10.6379 -1.7017 0.8780
-18.9206 -9.2408 -1.1035 0.9191
-13.6290 -8.8298 -0.8511 0.9370
-12.7578 -10.6463 -0.8708 0.9356
-22.2477 -23.6514 -1.7017 0.8780
-19.2420 -26.1552 -1.7017 0.8780
-15.9570 -28.2794 -1.7017 0.8780
-12.4404 -29.9931 -1.7017 0.8780
-8.7433 -31.2714 -1.7017 0.8780
-4.4792 -29.2253 -1.5495 0.8883
-0.9322 -29.5519 -1.5495 0.8883
2.6284 -29.4495 -1.5495 0.8883
1.7266 -8.1179 -0.4350 0.9673
9.5840 -27.9702 -1.5495 0.8883
12.8780 -26.6146 -1.5495 0.8883
15.9852 -24.8728 -1.5495 0.8883
18.8603 -22.7700 -1.5495 0.8883
19.3464 -18.3323 -1.3968 0.8987
26.0845 -19.3377 -1.7017 0.8780
28.2207 -16.0606 -1.7017 0.8780
20.2914 -8.5037 -1.1530 0.9156
28.5851 -8.1053 -1.5571 0.8878
32.0777 -5.0368 -1.7017 0.8780
32.4506 -1.1427 -1.7017 0.8780
32.3525 2.7680 -1.7017 0.8780
28.9421 6.0448 -1.5495 0.8883
25.6053 8.6689 -1.4167 0.8974
20.1105 9.6401 -1.1688 0.9145
13.6502 8.7021 -0.8484 0.9372
10.8376 8.9099 -0.7353 0.9454
8.5589 8.9663 -0.6496 0.9516
6.6485 8.8997 -0.5822 0.9565
5.1496 8.9719 -0.5421 0.9594
3.8002 8.9756 -0.5108 0.9617
2.3364 8.1263 -0.4431 0.9667
2.0991 13.0563 -0.6930 0.9484
0.5149 13.2417 -0.6945 0.9483
-2.4125 29.4680 -1.5495 0.8883
-6.5220 31.8090 -1.7017 0.8780
-10.2999 30.7938 -1.7017 0.8780
-13.9283 29.3317 -1.7017 0.8780
-8.9270 14.1168 -0.8753 0.9353
-10.3126 12.6379 -0.8549 0.9368
-23.4053 22.5064 -1.7017 0.8780
-24.8581 18.7124 -1.6306 0.8828
-25.5888 14.8121 -1.5495 0.8883
-27.1843 11.6274 -1.5495 0.8883
-28.3853 8.2739 -1.5495 0.8883
-29.1743 4.8003 -1.5495 0.8883
-32.4414 1.3806 -1.7017 0.8780
-32.3720 -2.5308 -1.7017 0.8780
-31.8327 -6.4054 -1.7017 0.8780
-30.8314 -10.1870 -1.7017 0.8780
-18.9233 -8.9010 -1.0960 0.9196
-14.2624 -8.9460 -0.8823 0.9348
-12.7638 -10.3377 -0.8608 0.9363
-22.5920 -23.3227 -1.7017 0.8780
-19.6234 -25.8703 -1.7017 0.8780
-16.3699 -28.0424 -1.7017 0.8780
-12.8788 -29.8075 -1.7017 0.8780
-9.2008 -31.1399 -1.7017 0.8780
-4.9072 -29.1565 -1.5495 0.8883
-0.4002 -8.6573 -0.4542 0.9659
2.1964 -29.4849 -1.5495 0.8883
1.5913 -8.0611 -0.4306 0.9676
9.1729 -28.1077 -1.5495 0.8883
12.4865 -26.8006 -1.5495 0.8883
15.6188 -25.1045 -1.5495 0.8883
18.5244 -23.0440 -1.5495 0.8883
18.7858 -18.3312 -1.3756 0.9002
25.7982 -19.7180 -1.7017 0.8780
27.9822 -16.4725 -1.7017 0.8780
16.2512 -7.0924 -0.9293 0.9314
28.4632 -8.5234 -1.5571 0.8878
32.0004 -5.5065 -1.7017 0.8780
32.4304 -1.6183 -1.7017 0.8780
32.3896 2.2934 -1.7017 0.8780
29.0276 5.6198 -1.5495 0.8883
27.0399 8.7149 -1.4889 0.8924
20.4786 9.4498 -1.1820 0.9136
14.1001 8.7009 -0.8683 0.9358
11.0827 8.8424 -0.7430 0.9448
8.8130 8.9655 -0.6589 0.9509
6.7936 8.8212 -0.5835 0.9564
5.3256 8.9714 -0.5468 0.9591
3.9562 8.9752 -0.5140 0.9615
2.4657 8.1256 -0.4450 0.9666
2.2386 12.7300 -0.6774 0.9495
0.7094 13.2412 -0.6949 0.9483
-1.9802 29.5002 -1.5495 0.8883
-6.0549 31.9012 -1.7017 0.8780
-9.8474 30.9415 -1.7017 0.8780
-13.4968 29.5328 -1.7017 0.8780
-8.9208 14.5758 -0.8956 0.9338
-9.9950 12.6219 -0.8438 0.9375
-23.0729 22.8471 -1.7017 0.8780
-24.8516 19.2848 -1.6486 0.8816
-25.3689 15.1856 -1.5495 0.8883
-27.0109 12.0247 -1.5495 0.8883
-28.2609 8.6891 -1.5495 0.8883
-29.1008 5.2276 -1.5495 0.8883
-32.4176 1.8560 -1.7017 0.8780
-32.4056 -2.0559 -1.7017 0.8780
-31.9232 -5.9380 -1.7017 0.8780
-29.8614 -9.3832 -1.6404 0.8822
-18.8941 -8.5512 -1.0869 0.9203
-18.8941 -11.4688 -1.1583 0.9153
-12.7526 -10.0226 -0.8500 0.9371
-12.7102 -12.7420 -0.9432 0.9304
-20.0005 -25.5798 -1.7017 0.8780
-16.7793 -27.7994 -1.7017 0.8780
-13.3144 -29.6155 -1.7017 0.8780
-9.6563 -31.0017 -1.7017 0.8780
-5.3343 -29.0814 -1.5495 0.8883
-0.5254 -8.6222 -0.4527 0.9660
1.7639 -29.5139 -1.5495 0.8883
1.4700 -8.0674 -0.4298 0.9677
8.7598 -28.2391 -1.5495 0.8883
12.0922 -26.9808 -1.5495 0.8883
15.2491 -25.3308 -1.5495 0.8883
18.1846 -23.3132 -1.5495 0.8883
18.2200 -18.3082 -1.3537 0.9017
25.5063 -20.0942 -1.7017 0.8780
27.7377 -16.8810 -1.7017 0.8780
29.5665 -13.4228 -1.7017 0.8780
22.7653 -7.1825 -1.2510 0.9088
31.9162 -5.9751 -1.7017 0.8780
32.4032 -2.0936 -1.7017 0.8780
32.4198 1.8183 -1.7017 0.8780
29.1068 5.1937 -1.5495 0.8883
28.2710 8.6563 -1.5495 0.8883
20.7601 9.2130 -1.1903 0.9130
14.5717 8.6996 -0.8894 0.9343
11.2497 8.7088 -0.7456 0.9446
9.0745 8.9648 -0.6685 0.9502
7.0015 8.8206 -0.5902 0.9559
5.5048 8.9709 -0.5516 0.9587
4.1142 8.9748 -0.5174 0.9612
2.5962 8.1249 -0.4470 0.9664
2.4226 12.6832 -0.6767 0.9496
0.9042 13.2406 -0.6955 0.9482
-0.2380 4.5413 -0.2383 0.9819
-5.5866 31.9865 -1.7017 0.8780
-9.3927 31.0826 -1.7017 0.8780
-13.0624 29.7275 -1.7017 0.8780
-8.9033 15.0379 -0.9159 0.9324
-9.7151 12.6451 -0.8357 0.9381
-22.7355 23.1829 -1.7017 0.8780
-24.8448 19.8698 -1.6673 0.8804
-25.1435 15.5559 -1.5495 0.8883
-26.8317 12.4193 -1.5495 0.8883
-28.1305 9.1025 -1.5495 0.8883
-29.0210 5.6536 -1.5495 0.8883
-32.3870 2.3310 -1.7017 0.8780
-32.4322 -1.5806 -1.7017 0.8780
-32.0068 -5.4694 -1.7017 0.8780
-29.6763 -8.8492 -1.6229 0.8833
-18.8941 -8.2197 -1.0798 0.9208
-18.8941 -11.0930 -1.1482 0.9160
-12.7500 -9.7216 -0.8403 0.9378
-12.7569 -12.4193 -0.9331 0.9312
-20.3733 -25.2839 -1.7017 0.8780
-17.1850 -27.5504 -1.7017 0.8780
-13.7471 -29.4171 -1.7017 0.8780
-10.1098 -30.8568 -1.7017 0.8780
-5.7599 -29.0001 -1.5495 0.8883
-2.2306 -29.4823 -1.5495 0.8883
1.3310 -29.5366 -1.5495 0.8883
1.3501 -8.0790 -0.4293 0.9677
8.3449 -28.3645 -1.5495 0.8883
11.6953 -27.1551 -1.5495 0.8883
14.8761 -25.5516 -1.5495 0.8883
17.8409 -23.5772 -1.5495 0.8883
17.7308 -18.3468 -1.3372 0.9029
25.1460 -20.4146 -1.6975 0.8783
27.4872 -17.2858 -1.7017 0.8780
29.3665 -13.8548 -1.7017 0.8780
21.6571 -7.1836 -1.1958 0.9127
31.8252 -6.4423 -1.7017 0.8780
32.3690 -2.5684 -1.7017 0.8780
32.4429 1.3429 -1.7017 0.8780
29.1798 4.7664 -1.5495 0.8883
28.3949 8.2409 -1.5495 0.8883
20.8485 8.8887 -1.1878 0.9132
15.0669 8.6982 -0.9118 0.9327
11.5957 8.7078 -0.7600 0.9436
9.3438 8.9641 -0.6786 0.9495
7.3367 8.9696 -0.6073 0.9546
5.6872 8.9704 -0.5566 0.9583
4.2743 8.9743 -0.5209 0.9610
2.7223 8.1076 -0.4482 0.9663
2.5775 12.4970 -0.6687 0.9502
1.0994 13.2401 -0.6963 0.9482
-0.1693 4.4870 -0.2353 0.9822
-3.5252 22.0894 -1.1723 0.9143
-5.1645 18.0417 -0.9835 0.9276
-12.6252 29.9158 -1.7017 0.8780
-8.8963 15.5414 -0.9385 0.9308
-9.4693 12.7064 -0.8305 0.9385
-22.3931 23.5137 -1.7017 0.8780
-24.8379 20.4684 -1.6867 0.8790
-24.9368 15.9382 -1.5510 0.8882
-25.3591 12.1922 -1.4746 0.8934
-27.9941 9.5139 -1.5495 0.8883
-28.9350 6.0784 -1.5495 0.8883
-32.3493 2.8056 -1.7017 0.8780
-32.4519 -1.1050 -1.7017 0.8780
-32.0835 -4.9996 -1.7017 0.8780
-29.6426 -8.3680 -1.6142 0.8839
-18.9370 -7.9102 -1.0755 0.9211
-18.8995 -10.7268 -1.1389 0.9166
-12.7836 -9.4542 -0.8333 0.9383
-12.7646 -12.0674 -0.9206 0.9321
-20.7418 -24.9825 -1.7017 0.8780
-17.5870 -27.2955 -1.7017 0.8780
-14.1769 -29.2124 -1.7017 0.8780
-10.5610 -30.7053 -1.7017 0.8780
-6.7918 -31.7525 -1.7017 0.8780
-2.6626 -29.4464 -1.5495 0.8883
0.8979 -29.5529 -1.5495 0.8883
1.2532 -8.2405 -0.4368 0.9672
7.9282 -28.4838 -1.5495 0.8883
11.2960 -27.3237 -1.5495 0.8883
14.4999 -25.7669 -1.5495 0.8883
17.4933 -23.8362 -1.5495 0.8883
17.3785 -18.5180 -1.3309 0.9033
24.6452 -20.6149 -1.6839 0.8792
27.2309 -17.6869 -1.7017 0.8780
29.1602 -14.2839 -1.7017 0.8780
27.7617 -9.6625 -1.5405 0.8889
30.6521 -6.6741 -1.6440 0.8819
32.3279 -3.0426 -1.7017 0.8780
32.4591 0.8671 -1.7017 0.8780
29.2466 4.3381 -1.5495 0.8883
28.5127 7.8237 -1.5495 0.8883
21.2184 8.6811 -1.2015 0.9123
15.5878 8.6967 -0.9355 0.9310
11.7126 8.5300 -0.7594 0.9436
9.6214 8.9633 -0.6891 0.9487
7.5583 8.9690 -0.6147 0.9541
5.8729 8.9699 -0.5619 0.9580
4.4366 8.9739 -0.5246 0.9607
3.1616 8.9774 -0.4988 0.9626
1.9576 8.8346 -0.4742 0.9644
1.4863 15.1947 -0.8001 0.9407
-0.1036 4.4967 -0.2357 0.9821
-3.1932 22.0853 -1.1695 0.9145
-8.4774 31.3446 -1.7017 0.8780
-12.1853 30.0976 -1.7017 0.8780
-8.8733 16.0424 -0.9608 0.9292
-9.2318 12.7744 -0.8260 0.9388
-22.0460 23.8395 -1.7017 0.8780
-24.6800 20.9534 -1.6967 0.8784
-24.8832 16.4228 -1.5625 0.8874
-26.4562 13.2006 -1.5495 0.8883
-27.8516 9.9233 -1.5495 0.8883
-28.8428 6.5019 -1.5495 0.8883
-32.3047 3.2796 -1.7017 0.8780
-32.4646 -0.6291 -1.7017 0.8780
-32.1534 -4.5286 -1.7017 0.8780
-29.6922 -7.9138 -1.6104 0.8842
-19.1922 -7.6883 -1.0835 0.9205
-18.8951 -10.3610 -1.1294 0.9173
-12.8385 -9.2066 -0.8280 0.9387
-12.7652 -11.7184 -0.9081 0.9329
-21.1059 -24.6757 -1.7017 0.8780
-17.9853 -27.0347 -1.7017 0.8780
-14.6036 -29.0014 -1.7017 0.8780
-11.0100 -30.5471 -1.7017 0.8780
-7.2566 -31.6495 -1.7017 0.8780
-3.0941 -29.4042 -1.5495 0.8883
0.4645 -29.5629 -1.5495 0.8883
4.0163 -29.2925 -1.5495 0.8883
7.5098 -28.5969 -1.5495 0.8883
10.8942 -27.4863 -1.5495 0.8883
14.1206 -25.9768 -1.5495 0.8883
17.1420 -24.0901 -1.5495 0.8883
17.3649 -19.0558 -1.3511 0.9019
21.2018 -18.2694 -1.4668 0.8940
14.5280 -9.7420 -0.9167 0.9323
28.9477 -14.7098 -1.7017 0.8780
19.5051 -7.1110 -1.0880 0.9202
28.9360 -6.7462 -1.5571 0.8878
32.2798 -3.5163 -1.7017 0.8780
32.4684 0.3911 -1.7017 0.8780
29.3070 3.9089 -1.5495 0.8883
28.6243 7.4050 -1.5495 0.8883
22.1327 8.6785 -1.2459 0.9092
16.1367 8.6952 -0.9606 0.9292
11.7119 8.2695 -0.7514 0.9442
9.8528 8.9127 -0.6963 0.9482
7.7855 8.9684 -0.6224 0.9535
6.0285 8.9193 -0.5642 0.9578
4.6013 8.9734 -0.5285 0.9604
3.2917 8.9270 -0.4986 0.9626
2.0938 8.8342 -0.4758 0.9643
1.7115 15.1941 -0.8013 0.9406
-0.2478 29.5655 -1.5495 0.8883
-2.8628 22.0812 -1.1669 0.9147
-3.3033 12.9649 -0.7012 0.9478
-11.7427 30.2730 -1.7017 0.8780
-15.2980 28.6412 -1.7017 0.8780
-9.0277 12.8858 -0.8246 0.9389
-21.6942 24.1600 -1.7017 0.8780
-24.4303 21.3656 -1.7009 0.8781
-24.8776 16.9477 -1.5776 0.8864
-26.2598 13.5870 -1.5495 0.8883
-27.7031 10.3305 -1.5495 0.8883
-28.7444 6.9241 -1.5495 0.8883
-32.1336 3.7389 -1.6954 0.8785
-32.4704 -0.1532 -1.7017 0.8780
-32.2163 -4.0569 -1.7017 0.8780
-29.8415 -7.4868 -1.6124 0.8841
-19.6980 -7.5578 -1.1057 0.9190
-18.8972 -10.0047 -1.1206 0.9179
-12.9463 -8.9996 -0.8263 0.9388
-12.7670 -11.3797 -0.8963 0.9338
-21.4653 -24.3636 -1.7017 0.8780
-18.3796 -26.7682 -1.7017 0.8780
-15.0271 -28.7842 -1.7017 0.8780
-11.4567 -30.3824 -1.7017 0.8780
-7.7199 -31.5397 -1.7017 0.8780
-2.7605 -22.9910 -1.2136 0.9114
0.0311 -29.5666 -1.5495 0.8883
3.5864 -29.3483 -1.5495 0.8883
7.0897 -28.7040 -1.5495 0.8883
10.4901 -27.6431 -1.5495 0.8883
13.7383 -26.1809 -1.5495 0.8883
14.6075 -21.1790 -1.3483 0.9021
17.4003 -19.6662 -1.3762 0.9002
20.6261 -18.3071 -1.4453 0.8954
26.7007 -18.4776 -1.7017 0.8780
28.7290 -15.1325 -1.7017 0.8780
30.3402 -11.5680 -1.7017 0.8780
28.8340 -7.1697 -1.5571 0.8878
32.2248 -3.9891 -1.7017 0.8780
32.4706 -0.0848 -1.7017 0.8780
31.9669 3.7875 -1.6870 0.8790
28.7298 6.9845 -1.5495 0.8883
23.1171 8.6758 -1.2940 0.9058
16.8116 8.7433 -0.9931 0.9269
11.8956 8.1405 -0.7554 0.9439
10.1471 8.9118 -0.7078 0.9473
8.0185 8.9678 -0.6305 0.9530
6.2205 8.9188 -0.5699 0.9574
4.7685 8.9729 -0.5325 0.9601
3.4603 8.9766 -0.5042 0.9622
2.0485 8.1111 -0.4384 0.9670
1.7724 13.9000 -0.7344 0.9454
0.1857 29.5660 -1.5495 0.8883
-2.5338 22.0771 -1.1646 0.9148
-3.0602 12.7918 -0.6893 0.9487
-11.2977 30.4419 -1.7017 0.8780
-14.8764 28.8624 -1.7017 0.8780
-8.9349 13.1597 -0.8336 0.9383
-21.3377 24.4755 -1.7017 0.8780
-24.1262 21.7319 -1.7017 0.8780
-24.8718 17.4831 -1.5933 0.8853
-26.0577 13.9706 -1.5495 0.8883
-27.5487 10.7355 -1.5495 0.8883
-28.6398 7.3447 -1.5495 0.8883
-30.8551 4.0495 -1.6309 0.8828
-32.4691 0.3229 -1.7017 0.8780
-32.2723 -3.5841 -1.7017 0.8780
-30.1535 -7.0970 -1.6235 0.8833
-30.4831 -11.1861 -1.7017 0.8780
-18.9108 -9.6596 -1.1129 0.9185
-13.2261 -8.9093 -0.8357 0.9381
-12.7672 -11.0483 -0.8848 0.9346
-21.8202 -24.0464 -1.7017 0.8780
-18.7701 -26.4959 -1.7017 0.8780
-15.4476 -28.5608 -1.7017 0.8780
-11.9008 -30.2112 -1.7017 0.8780
-8.1813 -31.4231 -1.7017 0.8780
-3.1089 -23.0339 -1.2181 0.9111
-0.4024 -29.5638 -1.5495 0.8883
3.1558 -29.3977 -1.5495 0.8883
6.6682 -28.8048 -1.5495 0.8883
10.0837 -27.7939 -1.5495 0.8883
13.3529 -26.3796 -1.5495 0.8883
14.2988 -21.3957 -1.3487 0.9021
19.2654 -22.4283 -1.5495 0.8883
20.0497 -18.3280 -1.4236 0.8969
26.4269 -18.8671 -1.7017 0.8780
17.8340 -9.7305 -1.0647 0.9218
17.8545 -7.1089 -1.0072 0.9259
28.7257 -7.5917 -1.5571 0.8878
32.1628 -4.4611 -1.7017 0.8780
32.4659 -0.5609 -1.7017 0.8780
32.2943 3.3471 -1.7015 0.8781
28.8291 6.5625 -1.5495 0.8883
24.1812 8.6729 -1.3463 0.9022
17.3287 8.6919 -1.0160 0.9253
12.2764 8.1394 -0.7719 0.9427
10.4513 8.9110 -0.7198 0.9465
8.2576 8.9671 -0.6389 0.9523
6.4165 8.9183 -0.5758 0.9569
4.9382 8.9725 -0.5367 0.9598
3.6121 8.9761 -0.5071 0.9620
2.1797 8.1271 -0.4410 0.9669
1.9208 13.4847 -0.7138 0.9469
0.2775 13.2513 -0.6946 0.9483
-2.2044 22.0568 -1.1617 0.9150
-2.8746 12.8455 -0.6899 0.9486
-10.8502 30.6043 -1.7017 0.8780
-14.4518 29.0774 -1.7017 0.8780
-8.9322 13.5800 -0.8518 0.9370
-20.9765 24.7858 -1.7017 0.8780
-23.8050 22.0833 -1.7017 0.8780
-24.8658 18.0292 -1.6097 0.8842
-25.8502 14.3510 -1.5495 0.8883
-27.3884 11.1383 -1.5495 0.8883
-28.5290 7.7638 -1.5495 0.8883
-29.8973 4.3704 -1.5835 0.8860
-32.4609 0.7988 -1.7017 0.8780
-32.3214 -3.1105 -1.7017 0.8780
-30.7909 -6.7721 -1.6523 0.8814
-30.6438 -10.7379 -1.7017 0.8780
-18.9212 -9.3178 -1.1053 0.9190
-13.5486 -8.8406 -0.8478 0.9373
-12.7592 -10.7183 -0.8733 0.9354
-22.1704 -23.7239 -1.7017 0.8780
-19.1565 -26.2179 -1.7017 0.8780
-15.8647 -28.3313 -1.7017 0.8780
-12.3425 -30.0335 -1.7017 0.8780
-8.6412 -31.2998 -1.7017 0.8780
-4.3838 -29.2398 -1.5495 0.8883
-0.8357 -29.5548 -1.5495 0.8883
2.7245 -29.4408 -1.5495 0.8883
1.7576 -8.1332 -0.4361 0.9672
9.6752 -27.9387 -1.5495 0.8883
12.9649 -26.5724 -1.5495 0.8883
16.0662 -24.8205 -1.5495 0.8883
18.9345 -22.7083 -1.5495 0.8883
19.4725 -18.3315 -1.4016 0.8984
26.1475 -19.2524 -1.7017 0.8780
28.2729 -15.9684 -1.7017 0.8780
20.2619 -8.4137 -1.1498 0.9159
28.6114 -8.0119 -1.5571 0.8878
32.0940 -4.9320 -1.7017 0.8780
32.4542 -1.0368 -1.7017 0.8780
32.3433 2.8736 -1.7017 0.8780
28.9222 6.1392 -1.5495 0.8883
25.3348 8.6696 -1.4033 0.8983
19.9443 9.6405 -1.1609 0.9151
13.5528 8.7024 -0.8441 0.9375
10.7660 8.9101 -0.7324 0.9456
8.5032 8.9664 -0.6476 0.9517
6.6168 8.9178 -0.5819 0.9565
5.1108 8.9720 -0.5411 0.9595
3.7658 8.9757 -0.5101 0.9618
2.3078 8.1264 -0.4427 0.9667
2.0640 13.1104 -0.6955 0.9482
0.4716 13.2418 -0.6944 0.9483
-2.5086 29.4600 -1.5495 0.8883
-6.6258 31.7875 -1.7017 0.8780
-10.4003 30.7601 -1.7017 0.8780
-14.0239 29.2861 -1.7017 0.8780
-8.9274 14.0159 -0.8709 0.9356
-10.3862 12.6435 -0.8575 0.9366
-23.4787 22.4298 -1.7017 0.8780
-24.8595 18.5867 -1.6267 0.8831
-25.6370 14.7285 -1.5495 0.8883
-27.2221 11.5385 -1.5495 0.8883
-28.4122 8.1811 -1.5495 0.8883
-29.2095 4.7083 -1.5506 0.8882
-32.4457 1.2747 -1.7017 0.8780
-32.3635 -2.6365 -1.7017 0.8780
-31.8116 -6.5093 -1.7017 0.8780
-30.7980 -10.2875 -1.7017 0.8780
-18.9238 -8.9768 -1.0977 0.9195
-14.0490 -8.8762 -0.8709 0.9356
-12.7636 -10.4067 -0.8631 0.9362
-22.5158 -23.3963 -1.7017 0.8780
-19.5388 -25.9342 -1.7017 0.8780
-16.2782 -28.0957 -1.7017 0.8780
-12.7814 -29.8494 -1.7017 0.8780
-9.0991 -31.1698 -1.7017 0.8780
-4.8120 -29.1724 -1.5495 0.8883
-1.2689 -29.5393 -1.5495 0.8883
2.2926 -29.4776 -1.5495 0.8883
1.6195 -8.0652 -0.4311 0.9676
9.2646 -28.0776 -1.5495 0.8883
12.5739 -26.7597 -1.5495 0.8883
15.7007 -25.0534 -1.5495 0.8883
18.5995 -22.9835 -1.5495 0.8883
18.9094 -18.3317 -1.3802 0.8999
25.8624 -19.6337 -1.7017 0.8780
28.0358 -16.3811 -1.7017 0.8780
29.8023 -12.8908 -1.7017 0.8780
24.4201 -7.2260 -1.3347 0.9030
32.0182 -5.4021 -1.7017 0.8780
32.4355 -1.5124 -1.7017 0.8780
32.3820 2.3992 -1.7017 0.8780
29.0091 5.7145 -1.5495 0.8883
26.5911 8.6662 -1.4657 0.8940
20.4164 9.5021 -1.1802 0.9137
13.9980 8.7011 -0.8638 0.9361
11.0538 8.8785 -0.7430 0.9448
8.7558 8.9657 -0.6568 0.9510
6.7479 8.8213 -0.5821 0.9565
5.2862 8.9715 -0.5457 0.9591
3.9213 8.9753 -0.5133 0.9615
2.4369 8.1258 -0.4446 0.9666
2.1958 12.7301 -0.6770 0.9496
0.6661 13.2413 -0.6948 0.9483
-2.0764 29.4936 -1.5495 0.8883
-6.1590 31.8812 -1.7017 0.8780
-9.9483 30.9092 -1.7017 0.8780
-13.5932 29.4885 -1.7017 0.8780
-8.9225 14.4723 -0.8910 0.9342
-10.0633 12.6233 -0.8461 0.9374
-23.1474 22.7717 -1.7017 0.8780
-24.8530 19.1562 -1.6445 0.8819
-25.4183 15.1028 -1.5495 0.8883
-27.0500 11.9364 -1.5495 0.8883
-28.2892 8.5968 -1.5495 0.8883
-29.1177 5.1325 -1.5495 0.8883
-32.4235 1.7503 -1.7017 0.8780
-32.3987 -2.1617 -1.7017 0.8780
-31.9036 -6.0422 -1.7017 0.8780
-29.9490 -9.5183 -1.6469 0.8817
-18.9583 -8.6549 -1.0922 0.9199
-18.8941 -11.5533 -1.1606 0.9151
-12.7580 -10.0944 -0.8526 0.9369
-12.7260 -12.8415 -0.9475 0.9301
-19.9168 -25.6450 -1.7017 0.8780
-16.6884 -27.8540 -1.7017 0.8780
-13.2176 -29.6588 -1.7017 0.8780
-9.5550 -31.0330 -1.7017 0.8780
-5.2391 -29.0987 -1.5495 0.8883
-0.4950 -8.5853 -0.4507 0.9661
1.8602 -29.5080 -1.5495 0.8883
1.4972 -8.0671 -0.4300 0.9677
8.8520 -28.2104 -1.5495 0.8883
12.1802 -26.9412 -1.5495 0.8883
15.3317 -25.2809 -1.5495 0.8883
18.2606 -23.2536 -1.5495 0.8883
18.2914 -18.2602 -1.3545 0.9017
10.6389 -8.3253 -0.7080 0.9473
16.1932 -9.7829 -0.9915 0.9270
29.6101 -13.3262 -1.7017 0.8780
22.8087 -7.1145 -1.2522 0.9087
31.9355 -5.8711 -1.7017 0.8780
32.4098 -1.9878 -1.7017 0.8780
32.4137 1.9240 -1.7017 0.8780
29.0897 5.2887 -1.5495 0.8883
28.2426 8.7485 -1.5495 0.8883
20.6971 9.2659 -1.1884 0.9132
14.4647 8.6999 -0.8846 0.9346
11.1828 8.7155 -0.7430 0.9448
9.0157 8.9650 -0.6663 0.9503
6.9548 8.8207 -0.5887 0.9560
5.4647 8.9710 -0.5505 0.9588
4.0788 8.9749 -0.5166 0.9613
2.5671 8.1251 -0.4466 0.9664
2.3864 12.7184 -0.6782 0.9495
0.8608 13.2407 -0.6954 0.9482
-1.6438 29.5209 -1.5495 0.8883
-5.6911 31.9681 -1.7017 0.8780
-9.4941 31.0518 -1.7017 0.8780
-13.1592 29.6847 -1.7017 0.8780
-8.9046 14.9288 -0.9110 0.9327
-9.7708 12.6321 -0.8369 0.9380
-22.8109 23.1087 -1.7017 0.8780
-24.8463 19.7385 -1.6630 0.8806
-25.1941 15.4738 -1.5495 0.8883
-26.8722 12.3316 -1.5495 0.8883
-28.1601 9.0107 -1.5495 0.8883
-29.0393 5.5590 -1.5495 0.8883
-32.3944 2.2253 -1.7017 0.8780
-32.4269 -1.6864 -1.7017 0.8780
-31.9888 -5.5736 -1.7017 0.8780
-29.6996 -8.9618 -1.6258 0.8832
-18.8941 -8.2930 -1.0814 0.9207
-18.8941 -11.1762 -1.1505 0.9158
-12.7463 -9.7847 -0.8421 0.9377
-12.7445 -12.4886 -0.9351 0.9310
-20.2907 -25.3503 -1.7017 0.8780
-17.0950 -27.6063 -1.7017 0.8780
6.3162 8.7186 -0.9419 0.9577
4.8380 8.7227 -0.8727 0.9607
3.5447 8.7263 -0.8240 0.9629
2.1951 8.0789 -0.7324 0.9669
1.8631 12.7808 -1.1300 0.9495
0.3206 13.2422 -1.1589 0.9482
-1.7037 17.6289 -1.5495 0.9314
-2.8242 12.8163 -1.1482 0.9487
-5.8637 16.7122 -1.5495 0.9314
-8.6001 17.4462 -1.7017 0.9249
-8.9235 13.6637 -1.4278 0.9366
-10.2657 12.2105 -1.3957 0.9380
-14.2165 13.2749 -1.7017 0.9249
-15.7097 11.4689 -1.7017 0.9249
-16.9749 9.4965 -1.7017 0.9249
-17.9937 7.3862 -1.7017 0.9249
-18.7514 5.1688 -1.7017 0.9249
-19.2369 2.8763 -1.7017 0.9249
-19.4432 0.5420 -1.7017 0.9249
-19.3672 -1.8001 -1.7017 0.9249
-19.0102 -4.1161 -1.7017 0.9249
-18.3773 -6.3723 -1.7017 0.9249
-17.4776 -8.5361 -1.7017 0.9249
-13.7249 -8.8919 -1.4308 0.9364
-12.7507 -10.6404 -1.4529 0.9355
-13.3269 -14.1677 -1.7017 0.9249
-11.5264 -15.6676 -1.7017 0.9249
-9.5586 -16.9400 -1.7017 0.9249
-7.4521 -17.9665 -1.7017 0.9249
-5.2374 -18.7323 -1.7017 0.9249
-2.9467 -19.2262 -1.7017 0.9249
-0.6133 -19.4410 -1.7017 0.9249
1.7291 -19.3737 -1.7017 0.9249
1.7172 -8.0739 -0.7222 0.9674
6.3049 -18.4005 -1.7017 0.9249
4.6622 -9.6352 -0.9365 0.9579
6.2700 -9.7561 -1.0146 0.9545
7.9805 -9.6348 -1.0945 0.9510
10.2540 -9.7165 -1.2359 0.9449
9.5903 -7.1098 -1.0445 0.9532
15.4686 -8.8033 -1.5571 0.9310
16.4150 -6.8792 -1.5571 0.9310
18.7130 -5.3061 -1.7017 0.9249
19.2153 -3.0172 -1.7017 0.9249
19.4387 -0.6845 -1.7017 0.9249
19.3799 1.6581 -1.7017 0.9249
18.1890 3.7989 -1.6257 0.9281
16.7757 5.6796 -1.5495 0.9314
15.9710 7.6557 -1.5495 0.9314
13.6502 8.7021 -1.4163 0.9371
10.5951 8.7106 -1.2000 0.9464
8.3209 8.7169 -1.0543 0.9528
6.5128 8.7181 -0.9521 0.9572
5.0063 8.7223 -0.8799 0.9604
3.6945 8.7259 -0.8290 0.9627
2.3226 8.0781 -0.7354 0.9668
2.0468 12.7305 -1.1281 0.9495
0.5149 13.2417 -1.1594 0.9482
-1.4451 17.6520 -1.5495 0.9314
-2.6714 13.0286 -1.1636 0.9480
-5.6180 16.7964 -1.5495 0.9314
-8.3434 17.5704 -1.7017 0.9249
-8.9140 14.0962 -1.4592 0.9352
-9.9359 12.1763 -1.3749 0.9388
-14.0203 13.4819 -1.7017 0.9249
-15.5399 11.6980 -1.7017 0.9249
-16.8339 9.7443 -1.7017 0.9249
-17.8835 7.6492 -1.7017 0.9249
-18.6736 5.4431 -1.7017 0.9249
-19.1926 3.1580 -1.7017 0.9249
-19.4331 0.8270 -1.7017 0.9249
-19.3915 -1.5160 -1.7017 0.9249
-19.0685 -3.8370 -1.7017 0.9249
-18.4687 -6.1022 -1.7017 0.9249
-17.6008 -8.2789 -1.7017 0.9249
-16.4775 -10.3355 -1.7017 0.9249
-12.7491 -10.3258 -1.4354 0.9362
-13.5331 -13.9708 -1.7017 0.9249
-11.7549 -15.4969 -1.7017 0.9249
-9.8059 -16.7980 -1.7017 0.9249
-7.7147 -17.8554 -1.7017 0.9249
-5.5115 -18.6535 -1.7017 0.9249
-3.2283 -19.1809 -1.7017 0.9249
-0.4002 -8.6572 -0.7582 0.9658
1.4449 -19.3970 -1.7017 0.9249
1.5908 -8.0582 -0.7186 0.9676
6.0345 -18.4909 -1.7017 0.9249
8.2144 -17.6311 -1.7017 0.9249
10.2750 -16.5153 -1.7017 0.9249
12.1865 -15.1598 -1.7017 0.9249
13.9211 -13.5843 -1.7017 0.9249
10.6161 -8.1141 -1.1690 0.9478
12.1801 -7.1702 -1.2365 0.9448
16.2080 -7.0735 -1.5472 0.9315
18.6332 -5.5798 -1.7017 0.9249
19.1690 -3.2985 -1.7017 0.9249
19.4265 -0.9694 -1.7017 0.9249
19.4021 1.3738 -1.7017 0.9249
5.1860 1.0040 -0.4621 0.9790
16.8572 5.4330 -1.5495 0.9314
16.0815 7.4208 -1.5495 0.9314
14.1001 8.7009 -1.4496 0.9356
10.9164 8.7097 -1.2218 0.9455
8.5679 8.7162 -1.0693 0.9521
6.7551 8.7713 -0.9686 0.9565
5.1775 8.7218 -0.8874 0.9601
3.8461 8.7255 -0.8343 0.9624
2.4511 8.0772 -0.7385 0.9667
2.2386 12.7300 -1.1308 0.9494
0.7094 13.2412 -1.1601 0.9481
-1.1862 17.6713 -1.5495 0.9314
-3.3027 17.4004 -1.5495 0.9314
-5.3712 16.8770 -1.5495 0.9314
-8.0849 17.6908 -1.7017 0.9249
-10.1537 16.5902 -1.7017 0.9249
-9.6467 12.1822 -1.3595 0.9395
-13.8212 13.6859 -1.7017 0.9249
-15.3667 11.9245 -1.7017 0.9249
-16.6892 9.9900 -1.7017 0.9249
-17.7695 7.9106 -1.7017 0.9249
-18.5918 5.7162 -1.7017 0.9249
-19.1443 3.4390 -1.7017 0.9249
-19.4189 1.1118 -1.7017 0.9249
-19.4117 -1.2315 -1.7017 0.9249
-19.1227 -3.5570 -1.7017 0.9249
-18.5562 -5.8308 -1.7017 0.9249
-17.7203 -8.0200 -1.7017 0.9249
-16.6273 -10.0928 -1.7017 0.9249
-12.7185 -9.9958 -1.4153 0.9371
-12.7185 -12.7503 -1.5756 0.9302
-11.9808 -15.3229 -1.7017 0.9249
-10.0512 -16.6525 -1.7017 0.9249
-7.9756 -17.7403 -1.7017 0.9249
-5.7844 -18.5707 -1.7017 0.9249
-3.5091 -19.1316 -1.7017 0.9249
-0.5254 -8.6221 -0.7557 0.9659
1.1604 -19.4161 -1.7017 0.9249
1.4710 -8.0730 -0.7179 0.9676
2.9915 -9.6436 -0.8834 0.9603
7.9550 -17.7496 -1.7017 0.9249
10.0318 -16.6641 -1.7017 0.9249
11.9629 -15.3368 -1.7017 0.9249
9.6050 -9.6515 -1.1913 0.9468
10.5385 -8.3024 -1.1737 0.9476
11.7814 -7.1701 -1.2066 0.9461
16.2062 -7.3574 -1.5571 0.9310
18.5494 -5.8524 -1.7017 0.9249
19.1186 -3.5792 -1.7017 0.9249
19.4102 -1.2541 -1.7017 0.9249
19.4202 1.0892 -1.7017 0.9249
19.1335 3.4141 -1.7004 0.9249
16.9350 5.1853 -1.5495 0.9314
16.1885 7.1842 -1.5495 0.9314
14.5717 8.6996 -1.4848 0.9341
11.2497 8.7088 -1.2447 0.9445
8.8221 8.7155 -1.0850 0.9514
6.9619 8.7707 -0.9797 0.9560
5.3516 8.7213 -0.8952 0.9597
3.9997 8.7251 -0.8397 0.9622
2.5807 8.0763 -0.7418 0.9665
1.8545 9.7092 -0.8648 0.9611
0.9042 13.2406 -1.1611 0.9481
-0.2374 4.5300 -0.3969 0.9820
-2.3501 13.4554 -1.1950 0.9466
-5.1232 16.9539 -1.5495 0.9314
-7.8247 17.8074 -1.7017 0.9249
-9.9094 16.7372 -1.7017 0.9249
-9.3792 12.2078 -1.3469 0.9401
-13.6191 13.8871 -1.7017 0.9249
-15.1903 12.1485 -1.7017 0.9249
-16.5410 10.2336 -1.7017 0.9249
-17.6516 8.1702 -1.7017 0.9249
-18.5060 5.9882 -1.7017 0.9249
-19.0918 3.7193 -1.7017 0.9249
-19.4005 1.3963 -1.7017 0.9249
-19.4277 -0.9468 -1.7017 0.9249
-19.1728 -3.2763 -1.7017 0.9249
-18.6397 -5.5582 -1.7017 0.9249
-17.8360 -7.7594 -1.7017 0.9249
-16.7734 -9.8479 -1.7017 0.9249
-12.7185 -9.6976 -1.3993 0.9378
-12.8166 -12.4774 -1.5649 0.9307
-12.2041 -15.1456 -1.7017 0.9249
-10.2942 -16.5033 -1.7017 0.9249
-8.2348 -17.6215 -1.7017 0.9249
-6.0560 -18.4839 -1.7017 0.9249
-3.7892 -19.0781 -1.7017 0.9249
-1.4675 -19.3953 -1.7017 0.9249
0.8756 -19.4310 -1.7017 0.9249
1.3580 -8.1263 -0.7208 0.9675
5.4898 -18.6599 -1.7017 0.9249
7.6939 -17.8643 -1.7017 0.9249
9.7864 -16.8094 -1.7017 0.9249
11.7368 -15.5105 -1.7017 0.9249
13.5169 -13.9866 -1.7017 0.9249
15.1008 -12.2595 -1.7017 0.9249
11.2750 -7.0905 -1.1653 0.9479
16.0967 -7.5942 -1.5571 0.9310
18.4616 -6.1237 -1.7017 0.9249
19.0640 -3.8591 -1.7017 0.9249
19.3898 -1.5385 -1.7017 0.9249
19.4341 0.8044 -1.7017 0.9249
19.1963 3.1356 -1.7017 0.9249
17.0092 4.9365 -1.5495 0.9314
16.2921 6.9461 -1.5495 0.9314
15.0669 8.6982 -1.5221 0.9325
11.5957 8.7078 -1.2687 0.9434
9.0840 8.7148 -1.1013 0.9507
7.1327 8.7202 -0.9856 0.9558
5.5289 8.7208 -0.9034 0.9594
4.1554 8.7246 -0.8455 0.9619
2.7115 8.0754 -0.7453 0.9664
1.8993 9.2090 -0.8226 0.9629
1.0994 13.2401 -1.1623 0.9481
-0.1692 4.4870 -0.3928 0.9821
-2.7911 17.4897 -1.5495 0.9314
-4.8741 17.0272 -1.5495 0.9314
-7.5628 17.9202 -1.7017 0.9249
-8.9734 15.6761 -1.5803 0.9300
-9.1632 12.2957 -1.3416 0.9403
-13.4140 14.0853 -1.7017 0.9249
-15.0105 12.3699 -1.7017 0.9249
-16.3891 10.4750 -1.7017 0.9249
-17.5299 8.4281 -1.7017 0.9249
-18.4162 6.2588 -1.7017 0.9249
-19.0352 3.9988 -1.7017 0.9249
-19.3780 1.6806 -1.7017 0.9249
-19.4395 -0.6619 -1.7017 0.9249
-19.2188 -2.9949 -1.7017 0.9249
-18.7191 -5.2843 -1.7017 0.9249
-17.9478 -7.4971 -1.7017 0.9249
-16.9160 -9.6010 -1.7017 0.9249
-12.7185 -9.4060 -1.3840 0.9385
-14.1343 -13.3623 -1.7017 0.9249
-12.4248 -14.9651 -1.7017 0.9249
-10.5350 -16.3506 -1.7017 0.9249
-8.4923 -17.4989 -1.7017 0.9249
-6.3263 -18.3932 -1.7017 0.9249
-4.0685 -19.0205 -1.7017 0.9249
-1.7516 -19.3717 -1.7017 0.9249
0.5907 -19.4417 -1.7017 0.9249
1.2780 -8.4038 -0.7437 0.9664
5.2157 -18.7384 -1.7017 0.9249
7.4312 -17.9752 -1.7017 0.9249
9.5389 -16.9511 -1.7017 0.9249
11.5082 -15.6810 -1.7017 0.9249
13.3104 -14.1832 -1.7017 0.9249
14.9194 -12.4796 -1.7017 0.9249
14.9260 -9.6947 -1.5571 0.9310
14.5371 -7.1209 -1.4162 0.9371
18.3699 -6.3937 -1.7017 0.9249
19.0054 -4.1382 -1.7017 0.9249
19.3651 -1.8226 -1.7017 0.9249
19.4438 0.5194 -1.7017 0.9249
19.2402 2.8539 -1.7017 0.9249
17.0797 4.6866 -1.5495 0.9314
16.3922 6.7065 -1.5495 0.9314
15.4667 8.6292 -1.5495 0.9314
11.7348 8.5461 -1.2701 0.9434
9.3539 8.7141 -1.1185 0.9500
7.3482 8.7196 -0.9976 0.9552
5.7095 8.7203 -0.9119 0.9590
4.3132 8.7242 -0.8515 0.9617
3.0736 8.7276 -0.8095 0.9635
1.9465 8.7846 -0.7872 0.9645
1.4863 15.1947 -1.3357 0.9405
-0.1036 4.4966 -0.3935 0.9821
-2.5344 17.5288 -1.5495 0.9314
-4.6240 17.0968 -1.5495 0.9314
-7.2993 18.0292 -1.7017 0.9249
-8.8726 16.0411 -1.6038 0.9290
-8.9745 12.4184 -1.3405 0.9403
-13.2061 14.2804 -1.7017 0.9249
-14.8275 12.5886 -1.7017 0.9249
-16.2338 10.7142 -1.7017 0.9249
-17.4045 8.6842 -1.7017 0.9249
-18.3225 6.5282 -1.7017 0.9249
-18.9746 4.2774 -1.7017 0.9249
-19.3512 1.9646 -1.7017 0.9249
-19.4471 -0.3768 -1.7017 0.9249
-19.2606 -2.7128 -1.7017 0.9249
-18.7946 -5.0093 -1.7017 0.9249
-18.0558 -7.2331 -1.7017 0.9249
-17.0550 -9.3519 -1.7017 0.9249
-12.8330 -9.2027 -1.3816 0.9386
-14.3287 -13.1537 -1.7017 0.9249
-12.6429 -14.7813 -1.7017 0.9249
-10.7736 -16.1944 -1.7017 0.9249
-8.7479 -17.3725 -1.7017 0.9249
-6.5953 -18.2984 -1.7017 0.9249
-4.3469 -18.9588 -1.7017 0.9249
-2.0355 -19.3439 -1.7017 0.9249
0.3056 -19.4483 -1.7017 0.9249
1.3350 -9.7367 -0.8598 0.9613
4.9404 -18.8128 -1.7017 0.9249
7.1669 -18.0822 -1.7017 0.9249
9.2894 -17.0891 -1.7017 0.9249
11.2771 -15.8480 -1.7017 0.9249
13.1011 -14.3768 -1.7017 0.9249
11.2342 -9.6804 -1.2974 0.9422
14.4990 -9.7226 -1.5273 0.9323
15.8671 -8.0629 -1.5571 0.9310
18.2742 -6.6623 -1.7017 0.9249
18.9427 -4.4163 -1.7017 0.9249
19.3363 -2.1063 -1.7017 0.9249
19.4493 0.2343 -1.7017 0.9249
19.2800 2.5715 -1.7017 0.9249
17.1466 4.4357 -1.5495 0.9314
16.4888 6.4655 -1.5495 0.9314
15.5916 8.4015 -1.5495 0.9314
11.7340 8.2851 -1.2567 0.9440
9.6324 8.7133 -1.1364 0.9492
7.5690 8.7190 -1.0101 0.9547
5.8937 8.7198 -0.9208 0.9586
4.4733 8.7238 -0.8577 0.9614
3.2180 8.7272 -0.8138 0.9633
2.0820 8.7843 -0.7898 0.9644
1.7115 15.1941 -1.3377 0.9405
-0.1484 17.7104 -1.5495 0.9314
-2.2772 17.5641 -1.5495 0.9314
-4.3728 17.1628 -1.5495 0.9314
-7.0342 18.1342 -1.7017 0.9249
-9.1639 17.1567 -1.7017 0.9249
-8.8727 12.6645 -1.3529 0.9398
-12.9954 14.4724 -1.7017 0.9249
-14.6414 12.8047 -1.7017 0.9249
-16.0750 10.9510 -1.7017 0.9249
-17.2753 8.9384 -1.7017 0.9249
-18.2248 6.7960 -1.7017 0.9249
-18.9098 4.5551 -1.7017 0.9249
-19.3204 2.2480 -1.7017 0.9249
-19.4505 -0.0918 -1.7017 0.9249
-19.2983 -2.4302 -1.7017 0.9249
-18.8660 -4.7332 -1.7017 0.9249
-18.1599 -6.9677 -1.7017 0.9249
-17.1902 -9.1010 -1.7017 0.9249
-12.9542 -9.0051 -1.3803 0.9386
-14.3833 -12.8204 -1.6857 0.9256
-12.8582 -14.5944 -1.7017 0.9249
-11.0098 -16.0348 -1.7017 0.9249
-9.0016 -17.2424 -1.7017 0.9249
-6.8628 -18.1998 -1.7017 0.9249
-4.6244 -18.8930 -1.7017 0.9249
-2.3188 -19.3120 -1.7017 0.9249
0.0205 -19.4507 -1.7017 0.9249
2.3593 -19.3071 -1.7017 0.9249
4.6641 -18.8832 -1.7017 0.9249
6.9011 -18.1853 -1.7017 0.9249
9.0379 -17.2234 -1.7017 0.9249
11.0435 -16.0116 -1.7017 0.9249
12.8889 -14.5673 -1.7017 0.9249
7.9805 -7.0833 -0.9336 0.9581
14.6354 -10.1281 -1.5571 0.9310
15.7472 -8.2946 -1.5571 0.9310
17.5070 -6.6750 -1.6392 0.9275
18.8759 -4.6936 -1.7017 0.9249
19.3034 -2.3895 -1.7017 0.9249
19.4506 -0.0508 -1.7017 0.9249
19.3156 2.2886 -1.7017 0.9249
17.2098 4.1839 -1.5495 0.9314
12.0325 4.5158 -1.1244 0.9497
15.7130 8.1720 -1.5495 0.9314
11.9277 8.1624 -1.2645 0.9436
9.9201 8.7125 -1.1551 0.9484
7.7955 8.7184 -1.0232 0.9541
6.0814 8.7193 -0.9301 0.9582
4.6358 8.7233 -0.8643 0.9611
3.3640 8.7268 -0.8183 0.9631
2.0364 8.0634 -0.7276 0.9672
1.7724 13.9000 -1.2259 0.9453
0.1112 17.7107 -1.5495 0.9314
-2.0194 17.5956 -1.5495 0.9314
-3.0695 12.8305 -1.1542 0.9484
-6.7676 18.2354 -1.7017 0.9249
-8.9113 17.2893 -1.7017 0.9249
-8.8727 13.0681 -1.3819 0.9385
-12.7818 14.6614 -1.7017 0.9249
-14.4521 13.0179 -1.7017 0.9249
-15.9127 11.1855 -1.7017 0.9249
-17.1424 9.1907 -1.7017 0.9249
-18.1232 7.0625 -1.7017 0.9249
-18.8410 4.8318 -1.7017 0.9249
-19.2853 2.5310 -1.7017 0.9249
-19.4498 0.1934 -1.7017 0.9249
-19.3319 -2.1470 -1.7017 0.9249
-18.9334 -4.4562 -1.7017 0.9249
-18.2601 -6.7007 -1.7017 0.9249
-17.3218 -8.8479 -1.7017 0.9249
-13.2464 -8.9230 -1.3973 0.9379
-14.7082 -12.7280 -1.7017 0.9249
-13.0708 -14.4043 -1.7017 0.9249
-11.2437 -15.8716 -1.7017 0.9249
-9.2535 -17.1086 -1.7017 0.9249
-7.1289 -18.0972 -1.7017 0.9249
-4.9008 -18.8232 -1.7017 0.9249
-2.6017 -19.2759 -1.7017 0.9249
-0.2647 -19.4489 -1.7017 0.9249
2.0761 -19.3396 -1.7017 0.9249
1.8917 -8.1716 -0.7338 0.9669
6.6337 -18.2845 -1.7017 0.9249
8.7844 -17.3541 -1.7017 0.9249
6.4929 -9.7155 -1.0223 0.9542
8.3434 -9.7132 -1.1203 0.9499
14.3563 -13.1235 -1.7017 0.9249
15.8303 -11.3018 -1.7017 0.9249
15.6239 -8.5246 -1.5571 0.9310
16.7916 -6.6857 -1.5812 0.9300
18.8051 -4.9698 -1.7017 0.9249
19.2663 -2.6723 -1.7017 0.9249
19.4478 -0.3360 -1.7017 0.9249
19.3471 2.0052 -1.7017 0.9249
17.2693 3.9311 -1.5495 0.9314
12.0316 4.3153 -1.1183 0.9500
15.8312 7.9408 -1.5495 0.9314
12.2453 8.1188 -1.2854 0.9427
10.2175 8.7117 -1.1747 0.9475
8.0280 8.7177 -1.0368 0.9535
6.2730 8.7188 -0.9397 0.9578
4.8009 8.7229 -0.8711 0.9608
3.5116 8.7264 -0.8230 0.9629
2.1669 8.0791 -0.7318 0.9670
1.8639 13.0857 -1.1564 0.9483
0.2775 13.2513 -1.1596 0.9482
-1.7613 17.6233 -1.5495 0.9314
-2.8648 12.8018 -1.1477 0.9487
-5.9182 16.6930 -1.5495 0.9314
-8.6570 17.4180 -1.7017 0.9249
-8.9214 13.5634 -1.4203 0.9369
-10.3681 12.2510 -1.4041 0.9376
-14.2597 13.2284 -1.7017 0.9249
-15.7471 11.4176 -1.7017 0.9249
-17.0058 9.4410 -1.7017 0.9249
-18.0177 7.3275 -1.7017 0.9249
-18.7681 5.1075 -1.7017 0.9249
-19.2462 2.8134 -1.7017 0.9249
-19.4448 0.4785 -1.7017 0.9249
-19.3613 -1.8633 -1.7017 0.9249
-18.9967 -4.1781 -1.7017 0.9249
-18.3564 -6.4323 -1.7017 0.9249
-17.4496 -8.5931 -1.7017 0.9249
-13.6230 -8.8891 -1.4231 0.9368
-12.7524 -10.7126 -1.4571 0.9353
-13.2806 -14.2112 -1.7017 0.9249
-11.4752 -15.7051 -1.7017 0.9249
-9.5033 -16.9711 -1.7017 0.9249
-7.3934 -17.9908 -1.7017 0.9249
-5.1763 -18.7493 -1.7017 0.9249
-2.8839 -19.2357 -1.7017 0.9249
-0.5498 -19.4429 -1.7017 0.9249
1.7923 -19.3680 -1.7017 0.9249
1.7481 -8.0893 -0.7241 0.9673
6.3650 -18.3798 -1.7017 0.9249
4.6966 -9.6260 -0.9371 0.9579
6.2698 -9.6862 -1.0095 0.9547
8.0317 -9.6325 -1.0973 0.9509
10.3169 -9.7124 -1.2397 0.9447
9.6260 -7.0876 -1.0458 0.9531
15.4972 -8.7527 -1.5571 0.9310
16.4373 -6.8256 -1.5571 0.9310
18.7302 -5.2449 -1.7017 0.9249
19.2250 -2.9544 -1.7017 0.9249
19.4408 -0.6211 -1.7017 0.9249
19.3744 1.7213 -1.7017 0.9249
17.9170 3.8032 -1.6025 0.9291
16.7571 5.7343 -1.5495 0.9314
15.9459 7.7078 -1.5495 0.9314
13.5528 8.7024 -1.4091 0.9374
10.5251 8.7108 -1.1953 0.9466
8.2668 8.7171 -1.0511 0.9529
6.4687 8.7182 -0.9498 0.9573
4.9686 8.7224 -0.8782 0.9605
3.6610 8.7260 -0.8279 0.9627
2.2941 8.0783 -0.7347 0.9668
2.0042 12.7307 -1.1275 0.9496
0.4716 13.2418 -1.1592 0.9482
-1.5027 17.6472 -1.5495 0.9314
-2.7034 12.9694 -1.1591 0.9482
-5.6728 16.7780 -1.5495 0.9314
-8.4007 17.5431 -1.7017 0.9249
-8.9155 13.9972 -1.4519 0.9355
-10.0081 12.1833 -1.3794 0.9387
-14.0643 13.4360 -1.7017 0.9249
-15.5780 11.6472 -1.7017 0.9249
-16.8656 9.6893 -1.7017 0.9249
-17.9084 7.5908 -1.7017 0.9249
-18.6913 5.3821 -1.7017 0.9249
-19.2029 3.0953 -1.7017 0.9249
-19.4357 0.7636 -1.7017 0.9249
-19.3865 -1.5793 -1.7017 0.9249
-19.0559 -3.8992 -1.7017 0.9249
-18.4487 -6.1625 -1.7017 0.9249
-17.5737 -8.3363 -1.7017 0.9249
-16.4437 -10.3892 -1.7017 0.9249
-12.7493 -10.3951 -1.4392 0.9361
-13.4875 -14.0149 -1.7017 0.9249
-11.7042 -15.5352 -1.7017 0.9249
-9.7510 -16.8300 -1.7017 0.9249
-7.6563 -17.8805 -1.7017 0.9249
-5.4506 -18.6714 -1.7017 0.9249
-3.1657 -19.1914 -1.7017 0.9249
-0.8348 -19.4328 -1.7017 0.9249
1.5082 -19.3922 -1.7017 0.9249
1.6174 -8.0549 -0.7188 0.9675
6.0948 -18.4712 -1.7017 0.9249
8.2719 -17.6042 -1.7017 0.9249
10.3289 -16.4816 -1.7017 0.9249
12.2359 -15.1200 -1.7017 0.9249
13.9654 -13.5388 -1.7017 0.9249
9.4501 -7.1741 -1.0380 0.9535
12.2594 -7.1630 -1.2422 0.9446
16.3355 -7.0658 -1.5571 0.9310
18.6513 -5.5190 -1.7017 0.9249
19.1796 -3.2360 -1.7017 0.9249
19.4296 -0.9060 -1.7017 0.9249
19.3975 1.4372 -1.7017 0.9249
5.1772 1.0199 -0.4616 0.9790
16.8393 5.4880 -1.5495 0.9314
16.0572 7.4732 -1.5495 0.9314
13.9980 8.7011 -1.4420 0.9360
10.8439 8.7099 -1.2169 0.9457
8.5123 8.7164 -1.0659 0.9523
6.7097 8.7714 -0.9662 0.9566
5.1391 8.7219 -0.8857 0.9602
3.8122 8.7256 -0.8331 0.9625
2.4224 8.0774 -0.7378 0.9667
2.1958 12.7301 -1.1302 0.9495
0.6661 13.2413 -1.1599 0.9482
-1.2438 17.6673 -1.5495 0.9314
-3.3594 17.3895 -1.5495 0.9314
-5.4263 16.8593 -1.5495 0.9314
-8.1426 17.6643 -1.7017 0.9249
-10.2077 16.5569 -1.7017 0.9249
-9.7072 12.1767 -1.3624 0.9394
-13.8658 13.6408 -1.7017 0.9249
-15.4056 11.8743 -1.7017 0.9249
-16.7217 9.9355 -1.7017 0.9249
-17.7952 7.8525 -1.7017 0.9249
-18.6104 5.6555 -1.7017 0.9249
-19.1554 3.3764 -1.7017 0.9249
-19.4224 1.0484 -1.7017 0.9249
-19.4076 -1.2949 -1.7017 0.9249
-19.1110 -3.6194 -1.7017 0.9249
-18.5370 -5.8914 -1.7017 0.9249
-17.6941 -8.0778 -1.7017 0.9249
-16.5942 -10.1470 -1.7017 0.9249
-12.7185 -10.0631 -1.4189 0.9370
-12.7185 -12.8339 -1.5808 0.9300
