ply
format ascii 1.0
element vertex 1586
property float32 x
property float32 y
property float32 z
property float32 I
end_header
9.7111 -8.5636 -1.5898 0.9492
11.4220 -7.8498 -1.7017 0.9457
12.2832 -6.4191 -1.7017 0.9457
12.9661 -4.8951 -1.7017 0.9457
13.4607 -3.3001 -1.7017 0.9457
13.7599 -1.6571 -1.7017 0.9457
13.8594 0.0099 -1.7017 0.9457
13.7280 1.6731 -1.6981 0.9458
12.2525 3.0224 -1.5495 0.9504
11.8001 4.4741 -1.5495 0.9504
11.1763 5.8609 -1.5495 0.9504
9.9260 6.8425 -1.4803 0.9526
6.9348 6.1329 -1.1367 0.9634
6.6677 7.5091 -1.2330 0.9603
7.1834 10.3758 -1.5495 0.9504
5.8833 11.1645 -1.5495 0.9504
4.4978 11.7911 -1.5495 0.9504
3.0470 12.2464 -1.5495 0.9504
1.3171 10.6291 -1.3151 0.9578
0.0343 12.6197 -1.5495 0.9504
-1.6295 13.7632 -1.7017 0.9457
-3.2731 13.4673 -1.7017 0.9457
-4.8691 12.9759 -1.7017 0.9457
-6.3944 12.2961 -1.7017 0.9457
-7.8269 11.4377 -1.7017 0.9457
-9.1457 10.4133 -1.7017 0.9457
-10.3318 9.2377 -1.7017 0.9457
-11.3679 7.9280 -1.7017 0.9457
-12.2389 6.5032 -1.7017 0.9457
-12.9322 4.9839 -1.7017 0.9457
-13.4378 3.3924 -1.7017 0.9457
-13.7482 1.7515 -1.7017 0.9457
-13.8591 0.0852 -1.7017 0.9457
-13.7687 -1.5823 -1.7017 0.9457
-13.4785 -3.2269 -1.7017 0.9457
-12.9925 -4.8245 -1.7017 0.9457
-12.3179 -6.3522 -1.7017 0.9457
-11.4645 -7.7876 -1.7017 0.9457
-10.4446 -9.1100 -1.7017 0.9457
-9.2731 -10.3001 -1.7017 0.9457
-7.9669 -11.3406 -1.7017 0.9457
-6.5451 -12.2165 -1.7017 0.9457
-5.0283 -12.9150 -1.7017 0.9457
-3.4384 -13.4261 -1.7017 0.9457
-1.7986 -13.7421 -1.7017 0.9457
-0.1328 -13.8587 -1.7017 0.9457
1.5351 -13.7741 -1.7017 0.9457
3.1806 -13.4895 -1.7017 0.9457
4.7799 -13.0090 -1.7017 0.9457
5.7738 -11.2913 -1.5571 0.9502
6.4125 -9.5102 -1.4084 0.9548
7.7899 -8.9932 -1.4609 0.9532
9.4514 -8.5679 -1.5663 0.9499
11.3132 -8.0058 -1.7017 0.9457
12.1940 -6.5870 -1.7017 0.9457
12.8977 -5.0725 -1.7017 0.9457
13.4142 -3.4845 -1.7017 0.9457
13.7359 -1.8458 -1.7017 0.9457
13.8582 -0.1803 -1.7017 0.9457
13.7751 1.4874 -1.7012 0.9457
12.2928 2.8540 -1.5495 0.9504
11.8603 4.3118 -1.5495 0.9504
11.2556 5.7070 -1.5495 0.9504
10.2222 6.8417 -1.5103 0.9516
7.1257 6.1295 -1.1541 0.9628
6.7104 7.3515 -1.2221 0.9607
7.3251 10.2763 -1.5495 0.9504
6.0359 11.0827 -1.5495 0.9504
4.6591 11.7282 -1.5495 0.9504
3.2147 12.2035 -1.5495 0.9504
1.4654 10.6290 -1.3174 0.9577
0.2075 12.6181 -1.5495 0.9504
-1.4382 13.7621 -1.6990 0.9458
-3.0880 13.5110 -1.7017 0.9457
-4.6906 13.0415 -1.7017 0.9457
-6.2251 12.3827 -1.7017 0.9457
-7.6692 11.5440 -1.7017 0.9457
-9.0020 10.5378 -1.7017 0.9457
-10.2041 9.3786 -1.7017 0.9457
-11.2580 8.0832 -1.7017 0.9457
-12.1485 6.6705 -1.7017 0.9457
-12.8626 5.1609 -1.7017 0.9457
-13.3900 3.5764 -1.7017 0.9457
-13.7229 1.9400 -1.7017 0.9457
-13.8566 0.2754 -1.7017 0.9457
-13.7892 -1.3932 -1.7017 0.9457
-13.5215 -3.0416 -1.7017 0.9457
-13.0575 -4.6458 -1.7017 0.9457
-12.4039 -6.1826 -1.7017 0.9457
-11.5703 -7.6296 -1.7017 0.9457
-10.5686 -8.9658 -1.7017 0.9457
-9.4135 -10.1719 -1.7017 0.9457
-8.1218 -11.2302 -1.7017 0.9457
-6.7121 -12.1256 -1.7017 0.9457
-5.2050 -12.8448 -1.7017 0.9457
-3.6224 -13.3776 -1.7017 0.9457
-1.9871 -13.7162 -1.7017 0.9457
-0.3229 -13.8556 -1.7017 0.9457
1.3459 -13.7939 -1.7017 0.9457
2.9952 -13.5318 -1.7017 0.9457
4.6010 -13.0734 -1.7017 0.9457
5.6183 -11.3694 -1.5571 0.9502
6.2227 -9.5076 -1.3952 0.9552
8.1708 -9.6988 -1.5571 0.9502
9.2780 -8.6457 -1.5571 0.9502
11.2022 -8.1604 -1.7017 0.9457
12.1024 -6.7537 -1.7017 0.9457
12.8269 -5.2491 -1.7017 0.9457
13.3651 -3.6682 -1.7017 0.9457
9.9216 -1.4722 -1.2316 0.9604
13.8544 -0.3705 -1.7017 0.9457
13.7984 1.2985 -1.7017 0.9457
12.3308 2.6850 -1.5495 0.9504
11.9184 4.1485 -1.5495 0.9504
11.3329 5.5520 -1.5495 0.9504
10.5308 6.8409 -1.5419 0.9507
7.3225 6.1260 -1.1722 0.9623
6.7129 7.1545 -1.2046 0.9612
7.4654 10.1748 -1.5495 0.9504
6.1875 10.9988 -1.5495 0.9504
4.8196 11.6632 -1.5495 0.9504
3.3819 12.1582 -1.5495 0.9504
1.6144 10.6290 -1.3200 0.9576
0.3806 12.6141 -1.5495 0.9504
-1.2468 13.7543 -1.6957 0.9459
-2.9023 13.5521 -1.7017 0.9457
7.1688 -8.0028 -1.7017 0.9574
8.0793 -7.0825 -1.7017 0.9574
8.8725 -6.0594 -1.7017 0.9574
9.5369 -4.9482 -1.7017 0.9574
10.0628 -3.7653 -1.7017 0.9574
10.4426 -2.5276 -1.7017 0.9574
10.6708 -1.2533 -1.7017 0.9574
10.7441 0.0392 -1.7017 0.9574
10.6614 1.3312 -1.7017 0.9574
9.4916 2.3709 -1.5495 0.9612
9.1375 3.4953 -1.5495 0.9612
8.6508 4.5690 -1.5495 0.9612
8.0385 5.5763 -1.5495 0.9612
6.8451 6.0895 -1.4511 0.9636
6.4743 7.3346 -1.5495 0.9612
5.5451 8.0600 -1.5495 0.9612
4.5354 8.6684 -1.5495 0.9612
3.4599 9.1510 -1.5495 0.9612
2.3342 9.5007 -1.5495 0.9612
1.1745 9.7125 -1.5495 0.9612
-0.0021 9.7832 -1.5495 0.9612
-1.2904 10.6312 -1.6962 0.9576
-2.5681 10.4328 -1.7017 0.9574
-3.8042 10.0482 -1.7017 0.9574
-4.9851 9.5177 -1.7017 0.9574
-6.0937 8.8490 -1.7017 0.9574
-7.1138 8.0518 -1.7017 0.9574
-8.0305 7.1378 -1.7017 0.9574
-8.8307 6.1201 -1.7017 0.9574
-9.5027 5.0136 -1.7017 0.9574
-10.0368 3.8342 -1.7017 0.9574
-10.4251 2.5992 -1.7017 0.9574
-10.6620 1.3265 -1.7017 0.9574
-10.7442 0.0345 -1.7017 0.9574
-10.6703 -1.2580 -1.7017 0.9574
-10.4415 -2.5323 -1.7017 0.9574
-10.0612 -3.7697 -1.7017 0.9574
-9.5347 -4.9524 -1.7017 0.9574
-8.8699 -6.0633 -1.7017 0.9574
-8.0762 -7.0861 -1.7017 0.9574
-7.1653 -8.0060 -1.7017 0.9574
-6.1504 -8.8097 -1.7017 0.9574
-5.0461 -9.4855 -1.7017 0.9574
-3.8686 -10.0235 -1.7017 0.9574
-2.6350 -10.4161 -1.7017 0.9574
-1.3631 -10.6574 -1.7017 0.9574
-0.0714 -10.7440 -1.7017 0.9574
1.2214 -10.6745 -1.7017 0.9574
2.4964 -10.4501 -1.7017 0.9574
3.6114 -9.7403 -1.6453 0.9588
4.5027 -8.7421 -1.5575 0.9610
5.8049 -8.5548 -1.6374 0.9590
7.0583 -8.1005 -1.7017 0.9574
7.9814 -7.1927 -1.7017 0.9574
8.7885 -6.1805 -1.7017 0.9574
9.4681 -5.0786 -1.7017 0.9574
10.0102 -3.9030 -1.7017 0.9574
10.4070 -2.6707 -1.7017 0.9574
10.6526 -1.3996 -1.7017 0.9574
10.7436 -0.1082 -1.7017 0.9574
10.6787 1.1848 -1.7017 0.9574
9.5232 2.2405 -1.5495 0.9612
9.1846 3.3696 -1.5495 0.9612
8.7127 4.4498 -1.5495 0.9612
8.1142 5.4654 -1.5495 0.9612
7.3980 6.4017 -1.5495 0.9612
6.5743 7.2450 -1.5495 0.9612
5.6552 7.9831 -1.5495 0.9612
4.6540 8.6054 -1.5495 0.9612
3.5852 9.1027 -1.5495 0.9612
2.4643 9.4678 -1.5495 0.9612
1.3077 9.6955 -1.5495 0.9612
0.1321 9.7824 -1.5495 0.9612
-1.0454 9.7272 -1.5495 0.9612
-2.4246 10.4670 -1.7017 0.9574
-3.6660 10.0994 -1.7017 0.9574
-4.8541 9.5852 -1.7017 0.9574
-5.9717 8.9318 -1.7017 0.9574
-7.0026 8.1487 -1.7017 0.9574
-7.9318 7.2473 -1.7017 0.9574
-8.7459 6.2407 -1.7017 0.9574
-9.4330 5.1435 -1.7017 0.9574
-9.9832 3.9716 -1.7017 0.9574
-10.3884 2.7420 -1.7017 0.9574
-10.6428 1.4727 -1.7017 0.9574
-10.7427 0.1819 -1.7017 0.9574
-10.6866 -1.1115 -1.7017 0.9574
-10.4753 -2.3887 -1.7017 0.9574
-10.1119 -3.6313 -1.7017 0.9574
-9.6018 -4.8211 -1.7017 0.9574
-8.9522 -5.9410 -1.7017 0.9574
-8.1727 -6.9746 -1.7017 0.9574
-7.2745 -7.9069 -1.7017 0.9574
-6.2707 -8.7245 -1.7017 0.9574
-5.1758 -9.4153 -1.7017 0.9574
-4.0058 -9.9695 -1.7017 0.9574
-2.7777 -10.3789 -1.7017 0.9574
-1.5092 -10.6377 -1.7017 0.9574
-0.2188 -10.7420 -1.7017 0.9574
1.0748 -10.6903 -1.7017 0.9574
2.3528 -10.4834 -1.7017 0.9574
3.5582 -10.0163 -1.6836 0.9579
4.3814 -8.8011 -1.5571 0.9610
5.6368 -8.5575 -1.6230 0.9593
6.9465 -8.1966 -1.7017 0.9574
7.8819 -7.3016 -1.7017 0.9574
8.7029 -6.3006 -1.7017 0.9574
9.3975 -5.2081 -1.7017 0.9574
9.9557 -4.0400 -1.7017 0.9574
10.3693 -2.8132 -1.7017 0.9574
9.9341 -1.4441 -1.5899 0.9602
10.7412 -0.2556 -1.7017 0.9574
10.6939 1.0381 -1.7017 0.9574
9.5531 2.1096 -1.5495 0.9612
9.2300 3.2433 -1.5495 0.9612
8.7729 4.3299 -1.5495 0.9612
8.1885 5.3536 -1.5495 0.9612
7.4851 6.2996 -1.5495 0.9612
6.6731 7.1541 -1.5495 0.9612
5.7642 7.9048 -1.5495 0.9612
4.7716 8.5407 -1.5495 0.9612
3.7097 9.0526 -1.5495 0.9612
2.5940 9.4331 -1.5495 0.9612
1.4406 9.6766 -1.5495 0.9612
0.2663 9.7796 -1.5495 0.9612
-0.9119 9.7407 -1.5495 0.9612
-2.2808 10.4993 -1.7017 0.9574
-3.5270 10.1488 -1.7017 0.9574
-4.7221 9.6509 -1.7017 0.9574
-5.8486 9.0129 -1.7017 0.9574
-6.8901 8.2440 -1.7017 0.9574
-7.8316 7.3555 -1.7017 0.9574
-8.6595 6.3601 -1.7017 0.9574
-9.3616 5.2725 -1.7017 0.9574
-9.9278 4.1082 -1.7017 0.9574
-10.3498 2.8844 -1.7017 0.9574
-10.6216 1.6186 -1.7017 0.9574
-10.7392 0.3293 -1.7017 0.9574
-10.7008 -0.9647 -1.7017 0.9574
-10.5071 -2.2448 -1.7017 0.9574
-10.1608 -3.4922 -1.7017 0.9574
-9.6670 -4.6889 -1.7017 0.9574
-9.0329 -5.8176 -1.7017 0.9574
-8.2676 -6.8618 -1.7017 0.9574
-7.3823 -7.8064 -1.7017 0.9574
-6.3898 -8.6376 -1.7017 0.9574
-5.3045 -9.3434 -1.7017 0.9574
-4.1422 -9.9136 -1.7017 0.9574
-2.9198 -10.3398 -1.7017 0.9574
-1.6550 -10.6160 -1.7017 0.9574
-0.3662 -10.7380 -1.7017 0.9574
0.9280 -10.7040 -1.7017 0.9574
2.2087 -10.5147 -1.7017 0.9574
3.4573 -10.1727 -1.7017 0.9574
4.2612 -8.8625 -1.5575 0.9610
5.4728 -8.5618 -1.6094 0.9597
6.8334 -8.2911 -1.7017 0.9574
7.7810 -7.4090 -1.7017 0.9574
8.6156 -6.4194 -1.7017 0.9574
9.3252 -5.3365 -1.7017 0.9574
9.8993 -4.1762 -1.7017 0.9574
10.3298 -2.9553 -1.7017 0.9574
10.6102 -1.6914 -1.7017 0.9574
10.7366 -0.4030 -1.7017 0.9574
10.7072 0.8913 -1.7017 0.9574
9.5811 1.9783 -1.5495 0.9612
9.2736 3.1163 -1.5495 0.9612
8.8315 4.2091 -1.5495 0.9612
8.2611 5.2407 -1.5495 0.9612
7.5709 6.1963 -1.5495 0.9612
6.7125 7.0012 -1.5362 0.9615
5.8721 7.8250 -1.5495 0.9612
4.8884 8.4744 -1.5495 0.9612
3.8336 9.0008 -1.5495 0.9612
2.7232 9.3966 -1.5495 0.9612
1.5733 9.6559 -1.5495 0.9612
0.4005 9.7750 -1.5495 0.9612
-0.7781 9.7522 -1.5495 0.9612
-2.1365 10.5296 -1.7017 0.9574
-3.3874 10.1962 -1.7017 0.9574
-4.5892 9.7148 -1.7017 0.9574
-5.7243 9.0923 -1.7017 0.9574
-6.7763 8.3378 -1.7017 0.9574
-7.7300 7.4623 -1.7017 0.9574
-8.5714 6.4784 -1.7017 0.9574
-9.2883 5.4004 -1.7017 0.9574
-9.8705 4.2441 -1.7017 0.9574
-10.3092 3.0261 -1.7017 0.9574
-10.5984 1.7642 -1.7017 0.9574
-10.7336 0.4767 -1.7017 0.9574
-10.7130 -0.8178 -1.7017 0.9574
-10.5369 -2.1004 -1.7017 0.9574
-10.2078 -3.3524 -1.7017 0.9574
-9.7305 -4.5558 -1.7017 0.9574
-9.1119 -5.6931 -1.7017 0.9574
-8.3610 -6.7477 -1.7017 0.9574
-7.4887 -7.7043 -1.7017 0.9574
-6.5077 -8.5491 -1.7017 0.9574
-5.4323 -9.2698 -1.7017 0.9574
-4.2779 -9.8558 -1.7017 0.9574
-3.0614 -10.2988 -1.7017 0.9574
-1.8005 -10.5923 -1.7017 0.9574
-0.5135 -10.7319 -1.7017 0.9574
0.7810 -10.7158 -1.7017 0.9574
2.0642 -10.5440 -1.7017 0.9574
3.3174 -10.2192 -1.7017 0.9574
4.1463 -8.9355 -1.5602 0.9609
5.3129 -8.5687 -1.5969 0.9600
6.7190 -8.3841 -1.7017 0.9574
7.6786 -7.5151 -1.7017 0.9574
8.5267 -6.5370 -1.7017 0.9574
9.2511 -5.4640 -1.7017 0.9574
9.8411 -4.3117 -1.7017 0.9574
10.2882 -3.0967 -1.7017 0.9574
10.5860 -1.8369 -1.7017 0.9574
10.7301 -0.5503 -1.7017 0.9574
10.7184 0.7443 -1.7017 0.9574
9.9988 1.9219 -1.6126 0.9596
9.3155 2.9888 -1.5495 0.9612
8.8884 4.0875 -1.5495 0.9612
4.5431 2.7954 -0.8449 0.9786
7.6552 6.0918 -1.5495 0.9612
6.8046 6.9051 -1.5355 0.9615
5.9789 7.7436 -1.5495 0.9612
5.0042 8.4065 -1.5495 0.9612
3.9568 8.9474 -1.5495 0.9612
2.8519 9.3583 -1.5495 0.9612
1.7056 9.6334 -1.5495 0.9612
0.5346 9.7686 -1.5495 0.9612
-0.6442 9.7620 -1.5495 0.9612
-1.9918 10.5580 -1.7017 0.9574
-3.2472 10.2418 -1.7017 0.9574
-4.4554 9.7769 -1.7017 0.9574
-5.5990 9.1700 -1.7017 0.9574
-6.6613 8.4300 -1.7017 0.9574
-7.6268 7.5676 -1.7017 0.9574
-8.4817 6.5954 -1.7017 0.9574
-9.2134 5.5274 -1.7017 0.9574
-9.8113 4.3791 -1.7017 0.9574
-10.2667 3.1673 -1.7017 0.9574
-10.5732 1.9095 -1.7017 0.9574
-10.7261 0.6239 -1.7017 0.9574
-10.7232 -0.6707 -1.7017 0.9574
-10.5647 -1.9556 -1.7017 0.9574
-10.2528 -3.2120 -1.7017 0.9574
-9.7921 -4.4219 -1.7017 0.9574
-9.1891 -5.5675 -1.7017 0.9574
-8.4528 -6.6323 -1.7017 0.9574
-7.5937 -7.6008 -1.7017 0.9574
-6.6244 -8.4590 -1.7017 0.9574
-5.5589 -9.1943 -1.7017 0.9574
-4.4127 -9.7962 -1.7017 0.9574
-3.2025 -10.2558 -1.7017 0.9574
-1.9457 -10.5665 -1.7017 0.9574
-0.6607 -10.7239 -1.7017 0.9574
0.6339 -10.7255 -1.7017 0.9574
1.9193 -10.5714 -1.7017 0.9574
3.1769 -10.2638 -1.7017 0.9574
4.0358 -9.0195 -1.5650 0.9608
5.1604 -8.5835 -1.5863 0.9603
6.6033 -8.4755 -1.7017 0.9574
7.5747 -7.6198 -1.7017 0.9574
8.4362 -6.6534 -1.7017 0.9574
9.1752 -5.5904 -1.7017 0.9574
9.7810 -4.4463 -1.7017 0.9574
10.2448 -3.2376 -1.7017 0.9574
10.5598 -1.9819 -1.7017 0.9574
10.7215 -0.6975 -1.7017 0.9574
10.7276 0.5971 -1.7017 0.9574
10.5338 1.8752 -1.6946 0.9576
9.3557 2.8606 -1.5495 0.9612
8.9437 3.9651 -1.5495 0.9612
4.5243 2.6989 -0.8344 0.9789
7.7380 5.9862 -1.5495 0.9612
6.9619 6.8734 -1.5495 0.9612
6.0846 7.6609 -1.5495 0.9612
5.1191 8.3371 -1.5495 0.9612
4.0792 8.8923 -1.5495 0.9612
2.9801 9.3183 -1.5495 0.9612
1.8377 9.6091 -1.5495 0.9612
0.6686 9.7604 -1.5495 0.9612
-0.5102 9.7699 -1.5495 0.9612
-1.8467 10.5843 -1.7017 0.9574
-3.1063 10.2853 -1.7017 0.9574
-4.3209 9.8371 -1.7017 0.9574
-5.4726 9.2460 -1.7017 0.9574
-6.5450 8.5206 -1.7017 0.9574
-7.5223 7.6716 -1.7017 0.9574
-8.3904 6.7111 -1.7017 0.9574
-9.1366 5.6533 -1.7017 0.9574
-9.7503 4.5133 -1.7017 0.9574
-10.2223 3.3079 -1.7017 0.9574
-10.5460 2.0544 -1.7017 0.9574
-10.7165 0.7710 -1.7017 0.9574
-10.7314 -0.5235 -1.7017 0.9574
-10.5906 -1.8104 -1.7017 0.9574
-10.2959 -3.0710 -1.7017 0.9574
-9.8518 -4.2871 -1.7017 0.9574
-9.2647 -5.4409 -1.7017 0.9574
-8.5430 -6.5157 -1.7017 0.9574
-7.6973 -7.4959 -1.7017 0.9574
-6.7399 -8.3673 -1.7017 0.9574
-5.6846 -9.1172 -1.7017 0.9574
-4.5467 -9.7347 -1.7017 0.9574
-3.3429 -10.2109 -1.7017 0.9574
-2.0905 -10.5389 -1.7017 0.9574
-0.8078 -10.7138 -1.7017 0.9574
0.4867 -10.7332 -1.7017 0.9574
1.7741 -10.5967 -1.7017 0.9574
3.0357 -10.3064 -1.7017 0.9574
3.9324 -9.1221 -1.5733 0.9606
5.0127 -8.6030 -1.5770 0.9605
6.4700 -8.5437 -1.6974 0.9575
7.4695 -7.7230 -1.7017 0.9574
8.3441 -6.7685 -1.7017 0.9574
9.0976 -5.7158 -1.7017 0.9574
9.7191 -4.5801 -1.7017 0.9574
10.1994 -3.3779 -1.7017 0.9574
10.5316 -2.1267 -1.7017 0.9574
10.7109 -0.8445 -1.7017 0.9574
10.7348 0.4499 -1.7017 0.9574
10.5736 1.7329 -1.6970 0.9575
9.3940 2.7320 -1.5495 0.9612
8.9973 3.8420 -1.5495 0.9612
4.5476 2.6289 -0.8320 0.9790
7.8195 5.8794 -1.5495 0.9612
7.0556 6.7772 -1.5495 0.9612
6.1892 7.5767 -1.5495 0.9612
5.2330 8.2661 -1.5495 0.9612
4.2008 8.8354 -1.5495 0.9612
3.1076 9.2766 -1.5495 0.9612
1.9693 9.5830 -1.5495 0.9612
0.8024 9.7503 -1.5495 0.9612
-0.3761 9.7760 -1.5495 0.9612
-1.7013 10.6086 -1.7017 0.9574
-2.9649 10.3270 -1.7017 0.9574
-4.1855 9.8954 -1.7017 0.9574
-5.3453 9.3202 -1.7017 0.9574
-6.4274 8.6096 -1.7017 0.9574
-7.4163 7.7741 -1.7017 0.9574
-8.2975 6.8256 -1.7017 0.9574
-9.0582 5.7781 -1.7017 0.9574
-9.6874 4.6467 -1.7017 0.9574
-10.1760 3.4478 -1.7017 0.9574
-10.5168 2.1989 -1.7017 0.9574
-10.7049 0.9180 -1.7017 0.9574
-10.7376 -0.3762 -1.7017 0.9574
-10.6144 -1.6649 -1.7017 0.9574
-10.3371 -2.9295 -1.7017 0.9574
-9.9097 -4.1515 -1.7017 0.9574
-9.3385 -5.3133 -1.7017 0.9574
-8.6316 -6.3979 -1.7017 0.9574
-7.7995 -7.3896 -1.7017 0.9574
-6.8541 -8.2740 -1.7017 0.9574
-5.8091 -9.0383 -1.7017 0.9574
-4.6799 -9.6714 -1.7017 0.9574
-3.4827 -10.1641 -1.7017 0.9574
-2.2349 -10.5092 -1.7017 0.9574
-0.9547 -10.7017 -1.7017 0.9574
0.3393 -10.7388 -1.7017 0.9574
1.6285 -10.6201 -1.7017 0.9574
2.8940 -10.3471 -1.7017 0.9574
3.8353 -9.2439 -1.5851 0.9603
4.8697 -8.6276 -1.5691 0.9607
6.2896 -8.5468 -1.6807 0.9579
7.3628 -7.8248 -1.7017 0.9574
8.2505 -6.8824 -1.7017 0.9574
9.0183 -5.8401 -1.7017 0.9574
9.6553 -4.7131 -1.7017 0.9574
10.1521 -3.5176 -1.7017 0.9574
10.5014 -2.2710 -1.7017 0.9574
10.6983 -0.9915 -1.7017 0.9574
10.7399 0.3025 -1.7017 0.9574
10.6115 1.5899 -1.6995 0.9575
9.4307 2.6028 -1.5495 0.9612
9.0492 3.7182 -1.5495 0.9612
4.6014 2.5764 -0.8352 0.9789
7.8994 5.7716 -1.5495 0.9612
6.9110 6.4584 -1.4982 0.9624
6.2926 7.4910 -1.5495 0.9612
5.3459 8.1935 -1.5495 0.9612
4.3217 8.7770 -1.5495 0.9612
3.2347 9.2330 -1.5495 0.9612
2.1007 9.5551 -1.5495 0.9612
0.9362 9.7383 -1.5495 0.9612
-0.2419 9.7803 -1.5495 0.9612
-1.5546 10.6244 -1.7007 0.9574
-2.8229 10.3667 -1.7017 0.9574
-4.0493 9.9519 -1.7017 0.9574
-5.2169 9.3927 -1.7017 0.9574
-6.3087 8.6970 -1.7017 0.9574
-7.3089 7.8751 -1.7017 0.9574
-8.2030 6.9389 -1.7017 0.9574
-8.9781 5.9019 -1.7017 0.9574
-9.6227 4.7792 -1.7017 0.9574
-10.1277 3.5871 -1.7017 0.9574
-10.4856 2.3430 -1.7017 0.9574
-10.6913 1.0648 -1.7017 0.9574
-10.7418 -0.2288 -1.7017 0.9574
-10.6363 -1.5191 -1.7017 0.9574
-10.3763 -2.7874 -1.7017 0.9574
-9.9658 -4.0151 -1.7017 0.9574
-9.4105 -5.1846 -1.7017 0.9574
-8.7186 -6.2788 -1.7017 0.9574
-7.9001 -7.2819 -1.7017 0.9574
-6.9670 -8.1792 -1.7017 0.9574
-5.9326 -8.9578 -1.7017 0.9574
-4.8122 -9.6063 -1.7017 0.9574
-3.6219 -10.1153 -1.7017 0.9574
-2.3789 -10.4775 -1.7017 0.9574
-1.1015 -10.6876 -1.7017 0.9574
0.1920 -10.7425 -1.7017 0.9574
1.4826 -10.6414 -1.7017 0.9574
2.7517 -10.3858 -1.7017 0.9574
3.7459 -9.3904 -1.6013 0.9599
4.7339 -8.6626 -1.5635 0.9608
6.1128 -8.5497 -1.6646 0.9583
7.2547 -7.9251 -1.7017 0.9574
8.1552 -6.9950 -1.7017 0.9574
8.9374 -5.9633 -1.7017 0.9574
9.5897 -4.8451 -1.7017 0.9574
10.1029 -3.6565 -1.7017 0.9574
10.4693 -2.4149 -1.7017 0.9574
10.6837 -1.1381 -1.7017 0.9574
10.7431 0.1551 -1.7017 0.9574
10.6464 1.4461 -1.7017 0.9574
9.4655 2.4732 -1.5495 0.9612
9.0993 3.5937 -1.5495 0.9612
4.7561 2.5780 -0.8568 0.9783
7.9779 5.6626 -1.5495 0.9612
7.2389 6.5811 -1.5495 0.9612
6.3948 7.4040 -1.5495 0.9612
5.4579 8.1193 -1.5495 0.9612
4.4417 8.7168 -1.5495 0.9612
3.3610 9.1878 -1.5495 0.9612
2.2316 9.5253 -1.5495 0.9612
1.0697 9.7246 -1.5495 0.9612
-0.1077 9.7826 -1.5495 0.9612
-1.4066 10.6290 -1.6981 0.9575
-2.6804 10.4045 -1.7017 0.9574
-3.9124 10.0066 -1.7017 0.9574
-5.0875 9.4634 -1.7017 0.9574
-6.1888 8.7828 -1.7017 0.9574
-7.2002 7.9746 -1.7017 0.9574
-8.1071 7.0508 -1.7017 0.9574
-8.8962 6.0245 -1.7017 0.9574
-9.5563 4.9108 -1.7017 0.9574
-10.0775 3.7257 -1.7017 0.9574
-10.4525 2.4866 -1.7017 0.9574
-10.6757 1.2114 -1.7017 0.9574
-10.7439 -0.0814 -1.7017 0.9574
-10.6561 -1.3730 -1.7017 0.9574
-10.4136 -2.6447 -1.7017 0.9574
-10.0199 -3.8780 -1.7017 0.9574
-9.4808 -5.0550 -1.7017 0.9574
-8.8039 -6.1586 -1.7017 0.9574
-7.9993 -7.1728 -1.7017 0.9574
-7.0785 -8.0828 -1.7017 0.9574
-6.0550 -8.8755 -1.7017 0.9574
-4.9435 -9.5394 -1.7017 0.9574
-3.7603 -10.0647 -1.7017 0.9574
-2.5225 -10.4439 -1.7017 0.9574
-1.2481 -10.6715 -1.7017 0.9574
0.0445 -10.7441 -1.7017 0.9574
1.3364 -10.6608 -1.7017 0.9574
2.6089 -10.4226 -1.7017 0.9574
3.6660 -9.5697 -1.6231 0.9593
4.6032 -8.7053 -1.5597 0.9609
5.9391 -8.5526 -1.6492 0.9587
7.1453 -8.0239 -1.7017 0.9574
8.0585 -7.1062 -1.7017 0.9574
8.8547 -6.0854 -1.7017 0.9574
9.5223 -4.9763 -1.7017 0.9574
10.0517 -3.7948 -1.7017 0.9574
10.4352 -2.5583 -1.7017 0.9574
10.6671 -1.2847 -1.7017 0.9574
10.7442 0.0076 -1.7017 0.9574
10.6653 1.2998 -1.7017 0.9574
9.4985 2.3430 -1.5495 0.9612
9.1478 3.4685 -1.5495 0.9612
8.6642 4.5435 -1.5495 0.9612
8.0548 5.5526 -1.5495 0.9612
6.8577 6.0647 -1.4500 0.9636
6.4958 7.3155 -1.5495 0.9612
5.5688 8.0437 -1.5495 0.9612
4.5609 8.6551 -1.5495 0.9612
3.4868 9.1408 -1.5495 0.9612
2.3621 9.4938 -1.5495 0.9612
1.2031 9.7090 -1.5495 0.9612
0.0266 9.7832 -1.5495 0.9612
-1.2587 10.6316 -1.6956 0.9576
-2.5374 10.4403 -1.7017 0.9574
-3.7747 10.0593 -1.7017 0.9574
-4.9571 9.5323 -1.7017 0.9574
-6.0676 8.8669 -1.7017 0.9574
-7.0901 8.0727 -1.7017 0.9574
-8.0095 7.1614 -1.7017 0.9574
-8.8127 6.1460 -1.7017 0.9574
-9.4880 5.0415 -1.7017 0.9574
-10.0254 3.8637 -1.7017 0.9574
-10.4174 2.6299 -1.7017 0.9574
-10.6581 1.3578 -1.7017 0.9574
-10.7440 0.0661 -1.7017 0.9574
-10.6739 -1.2267 -1.7017 0.9574
-10.4489 -2.5016 -1.7017 0.9574
-10.0722 -3.7401 -1.7017 0.9574
-9.5492 -4.9244 -1.7017 0.9574
-8.8876 -6.0372 -1.7017 0.9574
-8.0970 -7.0623 -1.7017 0.9574
-7.1888 -7.9849 -1.7017 0.9574
-6.1762 -8.7916 -1.7017 0.9574
-5.0740 -9.4706 -1.7017 0.9574
-3.8981 -10.0121 -1.7017 0.9574
-2.6656 -10.4083 -1.7017 0.9574
-1.3944 -10.6533 -1.7017 0.9574
-0.1029 -10.7437 -1.7017 0.9574
1.1900 -10.6781 -1.7017 0.9574
2.4657 -10.4574 -1.7017 0.9574
3.5987 -9.7941 -1.6526 0.9586
4.4763 -8.7538 -1.5572 0.9610
5.7687 -8.5554 -1.6343 0.9591
7.0345 -8.1212 -1.7017 0.9574
7.9602 -7.2161 -1.7017 0.9574
8.7703 -6.2063 -1.7017 0.9574
9.4531 -5.1064 -1.7017 0.9574
9.9987 -3.9324 -1.7017 0.9574
10.3991 -2.7013 -1.7017 0.9574
10.6485 -1.4309 -1.7017 0.9574
10.7433 -0.1398 -1.7017 0.9574
10.6821 1.1534 -1.7017 0.9574
9.5298 2.2125 -1.5495 0.9612
9.1945 3.3426 -1.5495 0.9612
8.7257 4.4242 -1.5495 0.9612
8.1302 5.4416 -1.5495 0.9612
7.4167 6.3799 -1.5495 0.9612
6.5956 7.2257 -1.5495 0.9612
5.6786 7.9665 -1.5495 0.9612
4.6792 8.5917 -1.5495 0.9612
3.6119 9.0921 -1.5495 0.9612
2.4921 9.4605 -1.5495 0.9612
1.3362 9.6916 -1.5495 0.9612
0.1608 9.7819 -1.5495 0.9612
-1.0169 9.7302 -1.5495 0.9612
-2.3939 10.4741 -1.7017 0.9574
-3.6363 10.1102 -1.7017 0.9574
-4.8259 9.5994 -1.7017 0.9574
-5.9454 8.9493 -1.7017 0.9574
-6.9786 8.1692 -1.7017 0.9574
-7.9105 7.2706 -1.7017 0.9574
-8.7276 6.2664 -1.7017 0.9574
-9.4179 5.1712 -1.7017 0.9574
-9.9715 4.0009 -1.7017 0.9574
-10.3803 2.7725 -1.7017 0.9574
-10.6384 1.5039 -1.7017 0.9574
-10.7421 0.2135 -1.7017 0.9574
-10.6898 -1.0801 -1.7017 0.9574
-10.4823 -2.3580 -1.7017 0.9574
-10.1226 -3.6016 -1.7017 0.9574
-9.6159 -4.7929 -1.7017 0.9574
-8.9696 -5.9147 -1.7017 0.9574
-8.1931 -6.9506 -1.7017 0.9574
-7.2977 -7.8855 -1.7017 0.9574
-6.2963 -8.7060 -1.7017 0.9574
-5.2034 -9.4001 -1.7017 0.9574
-4.0351 -9.9577 -1.7017 0.9574
-2.8082 -10.3707 -1.7017 0.9574
-1.5404 -10.6332 -1.7017 0.9574
-0.2504 -10.7413 -1.7017 0.9574
1.0434 -10.6934 -1.7017 0.9574
2.3219 -10.4903 -1.7017 0.9574
3.5487 -10.0835 -1.6931 0.9576
4.3555 -8.8139 -1.5571 0.9610
5.6012 -8.5580 -1.6200 0.9594
6.9224 -8.2170 -1.7017 0.9574
7.8604 -7.3247 -1.7017 0.9574
8.6843 -6.3262 -1.7017 0.9574
9.3822 -5.2357 -1.7017 0.9574
9.9438 -4.0693 -1.7017 0.9574
10.3610 -2.8437 -1.7017 0.9574
10.6278 -1.5770 -1.7017 0.9574
10.7404 -0.2872 -1.7017 0.9574
10.6969 1.0066 -1.7017 0.9574
9.5873 2.0876 -1.5541 0.9610
9.2395 3.2161 -1.5495 0.9612
8.7856 4.3040 -1.5495 0.9612
8.2042 5.3295 -1.5495 0.9612
7.5036 6.2776 -1.5495 0.9612
6.6941 7.1344 -1.5495 0.9612
5.7874 7.8878 -1.5495 0.9612
4.7967 8.5266 -1.5495 0.9612
3.7363 9.0417 -1.5495 0.9612
2.6218 9.4254 -1.5495 0.9612
1.4691 9.6723 -1.5495 0.9612
0.2950 9.7788 -1.5495 0.9612
-0.8832 9.7433 -1.5495 0.9612
-2.2500 10.5060 -1.7017 0.9574
5.8413 -6.5209 -1.7017 0.9650
6.5832 -5.7710 -1.7017 0.9650
7.2295 -4.9373 -1.7017 0.9650
7.7708 -4.0319 -1.7017 0.9650
8.1994 -3.0680 -1.7017 0.9650
8.5088 -2.0596 -1.7017 0.9650
8.6948 -1.0212 -1.7017 0.9650
8.7545 0.0320 -1.7017 0.9650
8.6871 1.0847 -1.7017 0.9650
7.7514 1.9363 -1.5530 0.9680
7.4454 2.8480 -1.5495 0.9680
4.7588 2.5134 -1.0461 0.9783
6.5499 4.5436 -1.5495 0.9680
5.9558 5.2984 -1.5495 0.9680
5.2753 5.9763 -1.5495 0.9680
4.5183 6.5674 -1.5495 0.9680
3.6956 7.0632 -1.5495 0.9680
2.8192 7.4564 -1.5495 0.9680
1.9019 7.7413 -1.5495 0.9680
0.9570 7.9139 -1.5495 0.9680
-0.0018 7.9716 -1.5495 0.9680
-1.0503 8.6529 -1.6943 0.9651
-2.0925 8.5008 -1.7017 0.9650
-3.0997 8.1874 -1.7017 0.9650
-4.0620 7.7552 -1.7017 0.9650
-4.9652 7.2103 -1.7017 0.9650
-5.7964 6.5608 -1.7017 0.9650
-6.5434 5.8160 -1.7017 0.9650
-7.1954 4.9867 -1.7017 0.9650
-7.7430 4.0851 -1.7017 0.9650
-8.1781 3.1242 -1.7017 0.9650
-8.4945 2.1179 -1.7017 0.9650
-8.6876 1.0809 -1.7017 0.9650
-8.7545 0.0281 -1.7017 0.9650
-8.6943 -1.0251 -1.7017 0.9650
-8.5079 -2.0633 -1.7017 0.9650
-8.1980 -3.0716 -1.7017 0.9650
-7.7691 -4.0353 -1.7017 0.9650
-7.2273 -4.9405 -1.7017 0.9650
-6.5806 -5.7739 -1.7017 0.9650
-5.8384 -6.5234 -1.7017 0.9650
-5.0114 -7.1783 -1.7017 0.9650
-4.1117 -7.7289 -1.7017 0.9650
-3.1522 -8.1674 -1.7017 0.9650
-2.1470 -8.4872 -1.7017 0.9650
-1.1106 -8.6838 -1.7017 0.9650
-0.0581 -8.7544 -1.7017 0.9650
0.9952 -8.6978 -1.7017 0.9650
2.0341 -8.5150 -1.7017 0.9650
3.0435 -8.2085 -1.7017 0.9650
4.0087 -7.7829 -1.7017 0.9650
4.9157 -7.2442 -1.7017 0.9650
5.7513 -6.6004 -1.7017 0.9650
6.5034 -5.8608 -1.7017 0.9650
7.1611 -5.0360 -1.7017 0.9650
7.7148 -4.1382 -1.7017 0.9650
8.1565 -3.1802 -1.7017 0.9650
8.4798 -2.1761 -1.7017 0.9650
8.6800 -1.1404 -1.7017 0.9650
8.7541 -0.0882 -1.7017 0.9650
8.7012 0.9654 -1.7017 0.9650
8.1564 1.9189 -1.6287 0.9664
7.4838 2.7456 -1.5495 0.9680
7.0993 3.6258 -1.5495 0.9680
6.6116 4.4533 -1.5495 0.9680
6.0280 5.2162 -1.5495 0.9680
5.3569 5.9034 -1.5495 0.9680
4.6079 6.5048 -1.5495 0.9680
3.7921 7.0118 -1.5495 0.9680
2.9213 7.4170 -1.5495 0.9680
2.0080 7.7145 -1.5495 0.9680
1.0655 7.9000 -1.5495 0.9680
0.1076 7.9708 -1.5495 0.9680
-0.8558 7.9626 -1.5567 0.9679
-1.9756 8.5287 -1.7017 0.9650
-2.9871 8.2292 -1.7017 0.9650
-3.9552 7.8102 -1.7017 0.9650
-4.8658 7.2778 -1.7017 0.9650
-5.7058 6.6397 -1.7017 0.9650
-6.4630 5.9052 -1.7017 0.9650
-7.1263 5.0850 -1.7017 0.9650
-7.6862 4.1910 -1.7017 0.9650
-8.1345 3.2361 -1.7017 0.9650
-8.4647 2.2343 -1.7017 0.9650
-8.6719 1.2000 -1.7017 0.9650
-8.7533 0.1482 -1.7017 0.9650
-8.7076 -0.9056 -1.7017 0.9650
-8.5354 -1.9464 -1.7017 0.9650
-8.2394 -2.9589 -1.7017 0.9650
-7.8237 -3.9284 -1.7017 0.9650
-7.2944 -4.8408 -1.7017 0.9650
-6.6592 -5.6830 -1.7017 0.9650
-5.9274 -6.4427 -1.7017 0.9650
-5.1095 -7.1088 -1.7017 0.9650
-4.2174 -7.6718 -1.7017 0.9650
-3.2640 -8.1233 -1.7017 0.9650
-2.2633 -8.4569 -1.7017 0.9650
-1.2297 -8.6678 -1.7017 0.9650
-0.1783 -8.7527 -1.7017 0.9650
0.8758 -8.7106 -1.7017 0.9650
1.9171 -8.5421 -1.7017 0.9650
2.9306 -8.2495 -1.7017 0.9650
3.9015 -7.8371 -1.7017 0.9650
4.8158 -7.3110 -1.7017 0.9650
5.6601 -6.6787 -1.7017 0.9650
6.4223 -5.9494 -1.7017 0.9650
7.0913 -5.1338 -1.7017 0.9650
7.6573 -4.2436 -1.7017 0.9650
8.1121 -3.2919 -1.7017 0.9650
8.4491 -2.2923 -1.7017 0.9650
8.6635 -1.2594 -1.7017 0.9650
8.7521 -0.2083 -1.7017 0.9650
8.7136 0.8459 -1.7017 0.9650
8.5126 1.8798 -1.6946 0.9651
7.5208 2.6427 -1.5495 0.9680
7.1483 3.5280 -1.5495 0.9680
6.6721 4.3622 -1.5495 0.9680
6.0990 5.1330 -1.5495 0.9680
5.4374 5.8293 -1.5495 0.9680
4.6968 6.4410 -1.5495 0.9680
3.8880 6.9591 -1.5495 0.9680
3.0228 7.3762 -1.5495 0.9680
2.1137 7.6862 -1.5495 0.9680
1.1738 7.8847 -1.5495 0.9680
0.2170 7.9686 -1.5495 0.9680
-0.7430 7.9369 -1.5495 0.9680
-1.8584 8.5550 -1.7017 0.9650
-2.8739 8.2694 -1.7017 0.9650
-3.8476 7.8637 -1.7017 0.9650
-4.7655 7.3439 -1.7017 0.9650
-5.6142 6.7174 -1.7017 0.9650
-6.3814 5.9934 -1.7017 0.9650
-7.0559 5.1824 -1.7017 0.9650
-7.6280 4.2961 -1.7017 0.9650
-8.0893 3.3474 -1.7017 0.9650
-8.4332 2.3502 -1.7017 0.9650
-8.6546 1.3189 -1.7017 0.9650
-8.7504 0.2683 -1.7017 0.9650
-8.7192 -0.7861 -1.7017 0.9650
-8.5614 -1.8291 -1.7017 0.9650
-8.2792 -2.8455 -1.7017 0.9650
-7.8769 -3.8206 -1.7017 0.9650
-7.3602 -4.7403 -1.7017 0.9650
-6.7366 -5.5911 -1.7017 0.9650
-6.0152 -6.3608 -1.7017 0.9650
-5.2065 -7.0381 -1.7017 0.9650
-4.3222 -7.6132 -1.7017 0.9650
-3.3752 -8.0778 -1.7017 0.9650
-2.3791 -8.4251 -1.7017 0.9650
-1.3485 -8.6501 -1.7017 0.9650
-0.2983 -8.7495 -1.7017 0.9650
0.7562 -8.7218 -1.7017 0.9650
1.7997 -8.5676 -1.7017 0.9650
2.8171 -8.2889 -1.7017 0.9650
3.7936 -7.8899 -1.7017 0.9650
4.7150 -7.3764 -1.7017 0.9650
5.5680 -6.7557 -1.7017 0.9650
6.3401 -6.0370 -1.7017 0.9650
7.0202 -5.2306 -1.7017 0.9650
7.5983 -4.3483 -1.7017 0.9650
8.0661 -3.4029 -1.7017 0.9650
8.4169 -2.4080 -1.7017 0.9650
8.6454 -1.3782 -1.7017 0.9650
8.7484 -0.3284 -1.7017 0.9650
8.7244 0.7262 -1.7017 0.9650
8.5474 1.7649 -1.6965 0.9651
7.5563 2.5392 -1.5495 0.9680
7.1961 3.4296 -1.5495 0.9680
4.4837 2.8444 -1.0321 0.9786
6.1689 5.0488 -1.5495 0.9680
5.5168 5.7541 -1.5495 0.9680
4.7847 6.3759 -1.5495 0.9680
3.9831 6.9051 -1.5495 0.9680
3.1237 7.3341 -1.5495 0.9680
2.2189 7.6565 -1.5495 0.9680
1.2819 7.8678 -1.5495 0.9680
0.3263 7.9649 -1.5495 0.9680
-0.6340 7.9463 -1.5495 0.9680
-1.7409 8.5797 -1.7017 0.9650
-2.7602 8.3081 -1.7017 0.9650
-3.7393 7.9158 -1.7017 0.9650
-4.6643 7.4086 -1.7017 0.9650
-5.5215 6.7938 -1.7017 0.9650
-6.2985 6.0804 -1.7017 0.9650
-6.9841 5.2787 -1.7017 0.9650
-7.5683 4.4004 -1.7017 0.9650
-8.0426 3.4581 -1.7017 0.9650
-8.4002 2.4657 -1.7017 0.9650
-8.6357 1.4375 -1.7017 0.9650
-8.7459 0.3884 -1.7017 0.9650
-8.7292 -0.6663 -1.7017 0.9650
-8.5856 -1.7114 -1.7017 0.9650
-8.3175 -2.7316 -1.7017 0.9650
-7.9286 -3.7122 -1.7017 0.9650
-7.4245 -4.6388 -1.7017 0.9650
-6.8127 -5.4981 -1.7017 0.9650
-6.1019 -6.2776 -1.7017 0.9650
-5.3026 -6.9660 -1.7017 0.9650
-4.4263 -7.5532 -1.7017 0.9650
-3.4857 -8.0307 -1.7017 0.9650
-2.4945 -8.3916 -1.7017 0.9650
-1.4671 -8.6308 -1.7017 0.9650
-0.4184 -8.7446 -1.7017 0.9650
0.6364 -8.7314 -1.7017 0.9650
1.6819 -8.5915 -1.7017 0.9650
2.7031 -8.3268 -1.7017 0.9650
3.6850 -7.9412 -1.7017 0.9650
4.6133 -7.4404 -1.7017 0.9650
5.4747 -6.8315 -1.7017 0.9650
6.2567 -6.1234 -1.7017 0.9650
6.9477 -5.3265 -1.7017 0.9650
7.5379 -4.4522 -1.7017 0.9650
8.0187 -3.5132 -1.7017 0.9650
8.3830 -2.5233 -1.7017 0.9650
8.6257 -1.4967 -1.7017 0.9650
8.7431 -0.4484 -1.7017 0.9650
8.7335 0.6064 -1.7017 0.9650
8.5807 1.6493 -1.6985 0.9650
7.5905 2.4353 -1.5495 0.9680
7.2425 3.3306 -1.5495 0.9680
4.4809 2.7571 -1.0227 0.9788
6.2376 4.9637 -1.5495 0.9680
5.5953 5.6779 -1.5495 0.9680
4.8718 6.3097 -1.5495 0.9680
4.0775 6.8498 -1.5495 0.9680
3.2240 7.2905 -1.5495 0.9680
2.3238 7.6253 -1.5495 0.9680
1.3898 7.8495 -1.5495 0.9680
0.4356 7.9597 -1.5495 0.9680
-0.5249 7.9543 -1.5495 0.9680
-1.6230 8.6028 -1.7017 0.9650
-2.6459 8.3452 -1.7017 0.9650
-3.6304 7.9664 -1.7017 0.9650
-4.5622 7.4719 -1.7017 0.9650
-5.4277 6.8689 -1.7017 0.9650
-6.2145 6.1662 -1.7017 0.9650
-6.9110 5.3740 -1.7017 0.9650
-7.5072 4.5038 -1.7017 0.9650
-7.9944 3.5682 -1.7017 0.9650
-8.3655 2.5808 -1.7017 0.9650
-8.6152 1.5559 -1.7017 0.9650
-8.7398 0.5084 -1.7017 0.9650
-8.7375 -0.5465 -1.7017 0.9650
-8.6083 -1.5934 -1.7017 0.9650
-8.3542 -2.6172 -1.7017 0.9650
-7.9788 -3.6030 -1.7017 0.9650
-7.4875 -4.5365 -1.7017 0.9650
-6.8875 -5.4041 -1.7017 0.9650
-6.1875 -6.1933 -1.7017 0.9650
-5.3977 -6.8925 -1.7017 0.9650
-4.5295 -7.4917 -1.7017 0.9650
-3.5956 -7.9821 -1.7017 0.9650
-2.6094 -8.3566 -1.7017 0.9650
-1.5854 -8.6098 -1.7017 0.9650
-0.5383 -8.7380 -1.7017 0.9650
0.5165 -8.7393 -1.7017 0.9650
1.5639 -8.6137 -1.7017 0.9650
2.5886 -8.3631 -1.7017 0.9650
3.5756 -7.9911 -1.7017 0.9650
4.5108 -7.5030 -1.7017 0.9650
5.3805 -6.9060 -1.7017 0.9650
6.1720 -6.2087 -1.7017 0.9650
6.8740 -5.4213 -1.7017 0.9650
7.4761 -4.5552 -1.7017 0.9650
7.9697 -3.6229 -1.7017 0.9650
8.3476 -2.6381 -1.7017 0.9650
8.6043 -1.6149 -1.7017 0.9650
8.7361 -0.5683 -1.7017 0.9650
8.7410 0.4865 -1.7017 0.9650
8.6125 1.5332 -1.7004 0.9650
7.6232 2.3309 -1.5495 0.9680
7.2875 3.2308 -1.5495 0.9680
4.4817 2.6735 -1.0144 0.9790
6.3051 4.8776 -1.5495 0.9680
5.6727 5.6006 -1.5495 0.9680
4.9579 6.2422 -1.5495 0.9680
4.1711 6.7932 -1.5495 0.9680
3.3238 7.2456 -1.5495 0.9680
2.4282 7.5927 -1.5495 0.9680
1.4974 7.8297 -1.5495 0.9680
0.5448 7.9529 -1.5495 0.9680
-0.4157 7.9607 -1.5495 0.9680
-1.5047 8.6243 -1.7017 0.9650
-2.5311 8.3807 -1.7017 0.9650
-3.5207 8.0154 -1.7017 0.9650
-4.4592 7.5338 -1.7017 0.9650
-5.3330 6.9428 -1.7017 0.9650
-6.1293 6.2509 -1.7017 0.9650
-6.8366 5.4684 -1.7017 0.9650
-7.4447 4.6064 -1.7017 0.9650
-7.9447 3.6775 -1.7017 0.9650
-8.3293 2.6953 -1.7017 0.9650
-8.5930 1.6739 -1.7017 0.9650
-8.7320 0.6283 -1.7017 0.9650
-8.7442 -0.4266 -1.7017 0.9650
-8.6294 -1.4752 -1.7017 0.9650
-8.3893 -2.5023 -1.7017 0.9650
-8.0274 -3.4932 -1.7017 0.9650
-7.5490 -4.4333 -1.7017 0.9650
-6.9610 -5.3091 -1.7017 0.9650
-6.2719 -6.1078 -1.7017 0.9650
-5.4918 -6.8178 -1.7017 0.9650
-4.6319 -7.4288 -1.7017 0.9650
-3.7048 -7.9320 -1.7017 0.9650
-2.7239 -8.3200 -1.7017 0.9650
-1.7034 -8.5872 -1.7017 0.9650
-0.6582 -8.7298 -1.7017 0.9650
0.3966 -8.7456 -1.7017 0.9650
1.4455 -8.6344 -1.7017 0.9650
2.4736 -8.3978 -1.7017 0.9650
3.4656 -8.0394 -1.7017 0.9650
4.4074 -7.5642 -1.7017 0.9650
5.2852 -6.9792 -1.7017 0.9650
6.0863 -6.2928 -1.7017 0.9650
6.7989 -5.5151 -1.7017 0.9650
7.4129 -4.6574 -1.7017 0.9650
7.9193 -3.7320 -1.7017 0.9650
8.3106 -2.7524 -1.7017 0.9650
8.5814 -1.7328 -1.7017 0.9650
8.7275 -0.6881 -1.7017 0.9650
8.7469 0.3666 -1.7017 0.9650
8.6393 1.4159 -1.7017 0.9650
7.6544 2.2261 -1.5495 0.9680
7.3311 3.1305 -1.5495 0.9680
4.4825 2.5913 -1.0064 0.9791
6.3714 4.7907 -1.5495 0.9680
5.7490 5.5222 -1.5495 0.9680
5.0431 6.1736 -1.5495 0.9680
4.2639 6.7353 -1.5495 0.9680
3.4229 7.1993 -1.5495 0.9680
2.5322 7.5587 -1.5495 0.9680
1.6047 7.8084 -1.5495 0.9680
0.6538 7.9447 -1.5495 0.9680
-0.3064 7.9657 -1.5495 0.9680
-1.3849 8.6352 -1.7000 0.9650
-2.4159 8.4146 -1.7017 0.9650
-3.4104 8.0630 -1.7017 0.9650
-4.3554 7.5942 -1.7017 0.9650
-5.2372 7.0153 -1.7017 0.9650
-6.0429 6.3344 -1.7017 0.9650
-6.7609 5.5616 -1.7017 0.9650
-7.3808 4.7081 -1.7017 0.9650
-7.8935 3.7862 -1.7017 0.9650
-8.2916 2.8093 -1.7017 0.9650
-8.5693 1.7917 -1.7017 0.9650
-8.7225 0.7480 -1.7017 0.9650
-8.7492 -0.3065 -1.7017 0.9650
-8.6488 -1.3566 -1.7017 0.9650
-8.4229 -2.3870 -1.7017 0.9650
-8.0746 -3.3827 -1.7017 0.9650
-7.6091 -4.3293 -1.7017 0.9650
-7.0332 -5.2131 -1.7017 0.9650
-6.3551 -6.0212 -1.7017 0.9650
-5.5848 -6.7418 -1.7017 0.9650
-4.7334 -7.3646 -1.7017 0.9650
-3.8132 -7.8804 -1.7017 0.9650
-2.8378 -8.2819 -1.7017 0.9650
-1.8211 -8.5631 -1.7017 0.9650
-0.7779 -8.7199 -1.7017 0.9650
0.2765 -8.7502 -1.7017 0.9650
1.3269 -8.6534 -1.7017 0.9650
2.3581 -8.4310 -1.7017 0.9650
3.3550 -8.0862 -1.7017 0.9650
4.3032 -7.6240 -1.7017 0.9650
5.1889 -7.0511 -1.7017 0.9650
5.9993 -6.3758 -1.7017 0.9650
6.7226 -5.6079 -1.7017 0.9650
7.3483 -4.7587 -1.7017 0.9650
7.8673 -3.8403 -1.7017 0.9650
8.2721 -2.8662 -1.7017 0.9650
8.5568 -1.8505 -1.7017 0.9650
8.7172 -0.8079 -1.7017 0.9650
8.7511 0.2465 -1.7017 0.9650
8.6579 1.2972 -1.7017 0.9650
7.6843 2.1208 -1.5495 0.9680
7.3734 3.0296 -1.5495 0.9680
4.5118 2.5262 -1.0051 0.9791
6.4366 4.7028 -1.5495 0.9680
5.8242 5.4428 -1.5495 0.9680
5.1273 6.1038 -1.5495 0.9680
4.3560 6.6762 -1.5495 0.9680
3.5214 7.1516 -1.5495 0.9680
2.6357 7.5232 -1.5495 0.9680
1.7117 7.7856 -1.5495 0.9680
0.7628 7.9350 -1.5495 0.9680
-0.1971 7.9691 -1.5495 0.9680
-1.2647 8.6430 -1.6979 0.9650
-2.3002 8.4470 -1.7017 0.9650
-3.2994 8.1090 -1.7017 0.9650
-4.2508 7.6533 -1.7017 0.9650
-5.1404 7.0865 -1.7017 0.9650
-5.9554 6.4168 -1.7017 0.9650
-6.6840 5.6539 -1.7017 0.9650
-7.3155 4.8090 -1.7017 0.9650
-7.8408 3.8942 -1.7017 0.9650
-8.2522 2.9229 -1.7017 0.9650
-8.5439 1.9091 -1.7017 0.9650
-8.7115 0.8676 -1.7017 0.9650
-8.7526 -0.1864 -1.7017 0.9650
-8.6666 -1.2378 -1.7017 0.9650
-8.4548 -2.2712 -1.7017 0.9650
-8.1203 -3.2716 -1.7017 0.9650
-7.6678 -4.2245 -1.7017 0.9650
-7.1041 -5.1161 -1.7017 0.9650
-6.4372 -5.9334 -1.7017 0.9650
-5.6768 -6.6645 -1.7017 0.9650
-4.8340 -7.2989 -1.7017 0.9650
-3.9210 -7.8274 -1.7017 0.9650
-2.9511 -8.2422 -1.7017 0.9650
-1.9384 -8.5373 -1.7017 0.9650
-0.8975 -8.7084 -1.7017 0.9650
0.1564 -8.7532 -1.7017 0.9650
1.2081 -8.6708 -1.7017 0.9650
2.2422 -8.4626 -1.7017 0.9650
3.2437 -8.1315 -1.7017 0.9650
4.1982 -7.6823 -1.7017 0.9650
5.0917 -7.1216 -1.7017 0.9650
5.9113 -6.4575 -1.7017 0.9650
6.6450 -5.6996 -1.7017 0.9650
7.2823 -4.8590 -1.7017 0.9650
7.8139 -3.9479 -1.7017 0.9650
8.2320 -2.9794 -1.7017 0.9650
8.5306 -1.9677 -1.7017 0.9650
8.7053 -0.9274 -1.7017 0.9650
8.7536 0.1264 -1.7017 0.9650
8.6749 1.1783 -1.7017 0.9650
7.7126 2.0152 -1.5495 0.9680
7.4143 2.9282 -1.5495 0.9680
4.6424 2.5163 -1.0264 0.9787
6.5005 4.6140 -1.5495 0.9680
5.8984 5.3624 -1.5495 0.9680
5.2106 6.0329 -1.5495 0.9680
4.4472 6.6158 -1.5495 0.9680
3.6192 7.1026 -1.5495 0.9680
2.7386 7.4864 -1.5495 0.9680
1.8183 7.7614 -1.5495 0.9680
0.8716 7.9238 -1.5495 0.9680
-0.0877 7.9711 -1.5495 0.9680
-1.1446 8.6492 -1.6959 0.9651
-2.1841 8.4777 -1.7017 0.9650
-3.1879 8.1535 -1.7017 0.9650
-4.1454 7.7109 -1.7017 0.9650
-5.0427 7.1564 -1.7017 0.9650
-5.8668 6.4979 -1.7017 0.9650
-6.6058 5.7451 -1.7017 0.9650
-7.2488 4.9089 -1.7017 0.9650
-7.7866 4.0014 -1.7017 0.9650
-8.2114 3.0358 -1.7017 0.9650
-8.5169 2.0262 -1.7017 0.9650
-8.6987 0.9871 -1.7017 0.9650
-8.7543 -0.0663 -1.7017 0.9650
-8.6828 -1.1188 -1.7017 0.9650
-8.4852 -2.1550 -1.7017 0.9650
-8.1644 -3.1599 -1.7017 0.9650
-7.7251 -4.1189 -1.7017 0.9650
-7.1736 -5.0181 -1.7017 0.9650
-6.5180 -5.8445 -1.7017 0.9650
-5.7677 -6.5860 -1.7017 0.9650
-4.9337 -7.2319 -1.7017 0.9650
-4.0281 -7.7728 -1.7017 0.9650
-3.0640 -8.2009 -1.7017 0.9650
-2.0554 -8.5099 -1.7017 0.9650
-1.0170 -8.6953 -1.7017 0.9650
0.0363 -8.7545 -1.7017 0.9650
1.0889 -8.6866 -1.7017 0.9650
2.1258 -8.4925 -1.7017 0.9650
3.1318 -8.1752 -1.7017 0.9650
4.0924 -7.7392 -1.7017 0.9650
4.9935 -7.1908 -1.7017 0.9650
5.8221 -6.5380 -1.7017 0.9650
6.5662 -5.7903 -1.7017 0.9650
7.2149 -4.9585 -1.7017 0.9650
7.7590 -4.0547 -1.7017 0.9650
8.1903 -3.0921 -1.7017 0.9650
8.5028 -2.0846 -1.7017 0.9650
8.6918 -1.0468 -1.7017 0.9650
8.7546 0.0062 -1.7017 0.9650
8.6903 1.0591 -1.7017 0.9650
7.8256 1.9304 -1.5667 0.9677
7.4538 2.8262 -1.5495 0.9680
4.7913 2.5126 -1.0516 0.9782
6.5632 4.5244 -1.5495 0.9680
5.9714 5.2809 -1.5495 0.9680
5.2929 5.9608 -1.5495 0.9680
4.5375 6.5541 -1.5495 0.9680
3.7163 7.0523 -1.5495 0.9680
2.8411 7.4481 -1.5495 0.9680
1.9247 7.7357 -1.5495 0.9680
0.9803 7.9111 -1.5495 0.9680
0.0217 7.9715 -1.5495 0.9680
-1.0094 8.5253 -1.6687 0.9656
-2.0675 8.5069 -1.7017 0.9650
-3.0757 8.1965 -1.7017 0.9650
-4.0392 7.7671 -1.7017 0.9650
-4.9440 7.2249 -1.7017 0.9650
-5.7771 6.5778 -1.7017 0.9650
-6.5263 5.8352 -1.7017 0.9650
-7.1808 5.0079 -1.7017 0.9650
-7.7310 4.1079 -1.7017 0.9650
-8.1689 3.1482 -1.7017 0.9650
-8.4883 2.1429 -1.7017 0.9650
-8.6844 1.1064 -1.7017 0.9650
-8.7544 0.0538 -1.7017 0.9650
-8.6973 -0.9995 -1.7017 0.9650
-8.5140 -2.0383 -1.7017 0.9650
-8.2070 -3.0475 -1.7017 0.9650
-7.7809 -4.0125 -1.7017 0.9650
-7.2418 -4.9192 -1.7017 0.9650
-6.5976 -5.7545 -1.7017 0.9650
-5.8576 -6.5063 -1.7017 0.9650
-5.0325 -7.1635 -1.7017 0.9650
-4.1344 -7.7168 -1.7017 0.9650
-3.1762 -8.1581 -1.7017 0.9650
-2.1720 -8.4809 -1.7017 0.9650
-1.1362 -8.6805 -1.7017 0.9650
-0.0839 -8.7542 -1.7017 0.9650
0.9697 -8.7007 -1.7017 0.9650
2.0091 -8.5209 -1.7017 0.9650
3.0194 -8.2174 -1.7017 0.9650
3.9858 -7.7946 -1.7017 0.9650
4.8943 -7.2586 -1.7017 0.9650
5.7318 -6.6173 -1.7017 0.9650
6.4861 -5.8798 -1.7017 0.9650
7.1462 -5.0570 -1.7017 0.9650
7.7026 -4.1608 -1.7017 0.9650
8.1471 -3.2042 -1.7017 0.9650
8.4734 -2.2010 -1.7017 0.9650
8.6766 -1.1659 -1.7017 0.9650
8.7538 -0.1139 -1.7017 0.9650
8.7040 0.9398 -1.7017 0.9650
8.2510 1.9156 -1.6465 0.9661
7.4918 2.7236 -1.5495 0.9680
7.1099 3.6049 -1.5495 0.9680
6.6247 4.4339 -1.5495 0.9680
6.0433 5.1985 -1.5495 0.9680
5.3742 5.8876 -1.5495 0.9680
4.6270 6.4912 -1.5495 0.9680
3.8127 7.0006 -1.5495 0.9680
2.9430 7.4084 -1.5495 0.9680
2.0306 7.7086 -1.5495 0.9680
1.0887 7.8969 -1.5495 0.9680
0.1310 7.9705 -1.5495 0.9680
-0.8286 7.9284 -1.5495 0.9680
-1.9506 8.5345 -1.7017 0.9650
-2.9629 8.2379 -1.7017 0.9650
-3.9322 7.8218 -1.7017 0.9650
-4.8444 7.2920 -1.7017 0.9650
-5.6863 6.6564 -1.7017 0.9650
-6.4456 5.9242 -1.7017 0.9650
-7.1114 5.1059 -1.7017 0.9650
-7.6739 4.2136 -1.7017 0.9650
-8.1249 3.2600 -1.7017 0.9650
-8.4581 2.2591 -1.7017 0.9650
-8.6684 1.2254 -1.7017 0.9650
-8.7528 0.1739 -1.7017 0.9650
-8.7102 -0.8801 -1.7017 0.9650
-8.5411 -1.9213 -1.7017 0.9650
-8.2480 -2.9346 -1.7017 0.9650
-7.8352 -3.9054 -1.7017 0.9650
-7.3086 -4.8194 -1.7017 0.9650
-6.6759 -5.6634 -1.7017 0.9650
-5.9463 -6.4253 -1.7017 0.9650
-5.1303 -7.0938 -1.7017 0.9650
-4.2399 -7.6594 -1.7017 0.9650
-3.2879 -8.1137 -1.7017 0.9650
-2.2881 -8.4502 -1.7017 0.9650
-1.2552 -8.6641 -1.7017 0.9650
-0.2040 -8.7522 -1.7017 0.9650
0.8502 -8.7132 -1.7017 0.9650
1.8920 -8.5477 -1.7017 0.9650
2.9063 -8.2581 -1.7017 0.9650
3.8784 -7.8486 -1.7017 0.9650
4.7943 -7.3251 -1.7017 0.9650
5.6405 -6.6953 -1.7017 0.9650
6.4048 -5.9683 -1.7017 0.9650
7.0761 -5.1547 -1.7017 0.9650
7.6448 -4.2661 -1.7017 0.9650
8.1024 -3.3157 -1.7017 0.9650
8.4423 -2.3171 -1.7017 0.9650
8.6598 -1.2849 -1.7017 0.9650
8.7514 -0.2340 -1.7017 0.9650
8.7161 0.8202 -1.7017 0.9650
8.5202 1.8552 -1.6950 0.9651
7.5285 2.6205 -1.5495 0.9680
7.1587 3.5070 -1.5495 0.9680
6.6849 4.3425 -1.5495 0.9680
6.1141 5.1151 -1.5495 0.9680
5.4545 5.8133 -1.5495 0.9680
4.7157 6.4271 -1.5495 0.9680
3.9085 6.9476 -1.5495 0.9680
3.0444 7.3673 -1.5495 0.9680
2.1363 7.6800 -1.5495 0.9680
1.1970 7.8812 -1.5495 0.9680
0.2404 7.9679 -1.5495 0.9680
-0.7197 7.9390 -1.5495 0.9680
-1.8333 8.5604 -1.7017 0.9650
4.9181 -5.4903 -1.7017 0.9702
5.5427 -4.8589 -1.7017 0.9702
6.0869 -4.1570 -1.7017 0.9702
6.5427 -3.3947 -1.7017 0.9702
6.9035 -2.5831 -1.7017 0.9702
7.1641 -1.7341 -1.7017 0.9702
7.3206 -0.8598 -1.7017 0.9702
7.3709 0.0269 -1.7017 0.9702
7.3141 0.9132 -1.7017 0.9702
7.1282 1.7806 -1.6962 0.9703
6.2687 2.3979 -1.5495 0.9728
4.7132 2.4893 -1.2306 0.9784
5.5147 3.8255 -1.5495 0.9728
5.0146 4.4610 -1.5495 0.9728
4.4416 5.0318 -1.5495 0.9728
3.8042 5.5295 -1.5495 0.9728
3.1115 5.9469 -1.5495 0.9728
2.3736 6.2779 -1.5495 0.9728
1.6013 6.5179 -1.5495 0.9728
0.8058 6.6631 -1.5495 0.9728
-0.0015 6.7117 -1.5495 0.9728
-0.8860 7.2992 -1.6975 0.9703
-1.7618 7.1573 -1.7017 0.9702
-2.6098 6.8934 -1.7017 0.9702
-3.4200 6.5295 -1.7017 0.9702
-4.1805 6.0708 -1.7017 0.9702
-4.8803 5.5239 -1.7017 0.9702
-5.5093 4.8968 -1.7017 0.9702
-6.0582 4.1986 -1.7017 0.9702
-6.5192 3.4395 -1.7017 0.9702
-6.8856 2.6304 -1.7017 0.9702
-7.1520 1.7832 -1.7017 0.9702
-7.3146 0.9100 -1.7017 0.9702
-7.3709 0.0237 -1.7017 0.9702
-7.3202 -0.8630 -1.7017 0.9702
-7.1633 -1.7372 -1.7017 0.9702
-6.9023 -2.5862 -1.7017 0.9702
-6.5412 -3.3976 -1.7017 0.9702
-6.0851 -4.1596 -1.7017 0.9702
-5.5406 -4.8613 -1.7017 0.9702
-4.9157 -5.4924 -1.7017 0.9702
-4.2194 -6.0438 -1.7017 0.9702
-3.4618 -6.5074 -1.7017 0.9702
-2.6540 -6.8765 -1.7017 0.9702
-1.8077 -7.1458 -1.7017 0.9702
-0.9351 -7.3114 -1.7017 0.9702
-0.0490 -7.3708 -1.7017 0.9702
0.8379 -7.3231 -1.7017 0.9702
1.7126 -7.1692 -1.7017 0.9702
2.5625 -6.9112 -1.7017 0.9702
3.3751 -6.5528 -1.7017 0.9702
4.1388 -6.0993 -1.7017 0.9702
4.8423 -5.5572 -1.7017 0.9702
5.4755 -4.9345 -1.7017 0.9702
6.0293 -4.2401 -1.7017 0.9702
6.4955 -3.4841 -1.7017 0.9702
6.8674 -2.6776 -1.7017 0.9702
7.1396 -1.8322 -1.7017 0.9702
7.3081 -0.9602 -1.7017 0.9702
7.3706 -0.0742 -1.7017 0.9702
7.3260 0.8128 -1.7017 0.9702
7.1588 1.6842 -1.6979 0.9703
6.3010 2.3117 -1.5495 0.9728
5.9772 3.0528 -1.5495 0.9728
5.5667 3.7495 -1.5495 0.9728
5.0753 4.3918 -1.5495 0.9728
4.5102 4.9704 -1.5495 0.9728
3.8797 5.4768 -1.5495 0.9728
3.1928 5.9036 -1.5495 0.9728
2.4596 6.2448 -1.5495 0.9728
1.6906 6.4953 -1.5495 0.9728
0.8971 6.6515 -1.5495 0.9728
0.0906 6.7111 -1.5495 0.9728
-0.7849 7.3035 -1.6959 0.9703
-1.6634 7.1808 -1.7017 0.9702
-2.5150 6.9286 -1.7017 0.9702
-3.3301 6.5758 -1.7017 0.9702
-4.0968 6.1276 -1.7017 0.9702
-4.8041 5.5903 -1.7017 0.9702
-5.4416 4.9719 -1.7017 0.9702
-6.0001 4.2814 -1.7017 0.9702
-6.4714 3.5286 -1.7017 0.9702
-6.8489 2.7247 -1.7017 0.9702
-7.1269 1.8811 -1.7017 0.9702
-7.3014 1.0103 -1.7017 0.9702
-7.3699 0.1248 -1.7017 0.9702
-7.3314 -0.7625 -1.7017 0.9702
-7.1865 -1.6388 -1.7017 0.9702
-6.9372 -2.4912 -1.7017 0.9702
-6.5872 -3.3075 -1.7017 0.9702
-6.1416 -4.0758 -1.7017 0.9702
-5.6068 -4.7848 -1.7017 0.9702
-4.9906 -5.4245 -1.7017 0.9702
-4.3019 -5.9853 -1.7017 0.9702
-3.5508 -6.4593 -1.7017 0.9702
-2.7481 -6.8395 -1.7017 0.9702
-1.9056 -7.1204 -1.7017 0.9702
-1.0354 -7.2979 -1.7017 0.9702
-0.1501 -7.3694 -1.7017 0.9702
0.7374 -7.3340 -1.7017 0.9702
1.6141 -7.1920 -1.7017 0.9702
2.4674 -6.9457 -1.7017 0.9702
3.2849 -6.5985 -1.7017 0.9702
4.0547 -6.1555 -1.7017 0.9702
4.7656 -5.6232 -1.7017 0.9702
5.4073 -5.0092 -1.7017 0.9702
5.9705 -4.3224 -1.7017 0.9702
6.4471 -3.5729 -1.7017 0.9702
6.8300 -2.7716 -1.7017 0.9702
7.1138 -1.9300 -1.7017 0.9702
7.2943 -1.0604 -1.7017 0.9702
7.3688 -0.1754 -1.7017 0.9702
7.3365 0.7122 -1.7017 0.9702
7.1882 1.5874 -1.6995 0.9702
6.3321 2.2250 -1.5495 0.9728
6.0186 2.9704 -1.5495 0.9728
5.6176 3.6728 -1.5495 0.9728
5.1351 4.3218 -1.5495 0.9728
4.5780 4.9080 -1.5495 0.9728
3.9545 5.4230 -1.5495 0.9728
3.2735 5.8593 -1.5495 0.9728
2.5450 6.2104 -1.5495 0.9728
1.7796 6.4715 -1.5495 0.9728
0.9883 6.6385 -1.5495 0.9728
0.1827 6.7092 -1.5495 0.9728
-0.6840 7.3065 -1.6942 0.9703
-1.5647 7.2029 -1.7017 0.9702
-2.4197 6.9625 -1.7017 0.9702
-3.2395 6.6209 -1.7017 0.9702
-4.0123 6.1832 -1.7017 0.9702
-4.7269 5.6557 -1.7017 0.9702
-5.3728 5.0461 -1.7017 0.9702
-5.9407 4.3633 -1.7017 0.9702
-6.4224 3.6171 -1.7017 0.9702
-6.8108 2.8184 -1.7017 0.9702
-7.1004 1.9788 -1.7017 0.9702
-7.2868 1.1104 -1.7017 0.9702
-7.3675 0.2259 -1.7017 0.9702
-7.3412 -0.6618 -1.7017 0.9702
-7.2083 -1.5400 -1.7017 0.9702
-6.9707 -2.3958 -1.7017 0.9702
-6.6320 -3.2168 -1.7017 0.9702
-6.1969 -3.9911 -1.7017 0.9702
-5.6719 -4.7074 -1.7017 0.9702
-5.0645 -5.3555 -1.7017 0.9702
-4.3837 -5.9257 -1.7017 0.9702
-3.6391 -6.4100 -1.7017 0.9702
-2.8417 -6.8011 -1.7017 0.9702
-2.0031 -7.0935 -1.7017 0.9702
-1.1354 -7.2830 -1.7017 0.9702
-0.2512 -7.3667 -1.7017 0.9702
0.6366 -7.3434 -1.7017 0.9702
1.5153 -7.2135 -1.7017 0.9702
2.3719 -6.9789 -1.7017 0.9702
3.1940 -6.6430 -1.7017 0.9702
3.9698 -6.2106 -1.7017 0.9702
4.6880 -5.6880 -1.7017 0.9702
5.3381 -5.0829 -1.7017 0.9702
5.9107 -4.4040 -1.7017 0.9702
6.3974 -3.6611 -1.7017 0.9702
6.7913 -2.8651 -1.7017 0.9702
7.0866 -2.0274 -1.7017 0.9702
7.2790 -1.1604 -1.7017 0.9702
7.3657 -0.2765 -1.7017 0.9702
7.3455 0.6115 -1.7017 0.9702
7.2163 1.4900 -1.7012 0.9702
6.3621 2.1379 -1.5495 0.9728
6.0588 2.8876 -1.5495 0.9728
4.4554 2.8264 -1.2181 0.9786
5.1939 4.2509 -1.5495 0.9728
4.6449 4.8447 -1.5495 0.9728
4.0285 5.3682 -1.5495 0.9728
3.3536 5.8138 -1.5495 0.9728
2.6300 6.1749 -1.5495 0.9728
1.8682 6.4464 -1.5495 0.9728
1.0793 6.6243 -1.5495 0.9728
0.2747 6.7061 -1.5495 0.9728
-0.5601 7.0195 -1.6257 0.9715
-1.4657 7.2237 -1.7017 0.9702
-2.3239 6.9950 -1.7017 0.9702
-3.1484 6.6647 -1.7017 0.9702
-3.9271 6.2377 -1.7017 0.9702
-4.6488 5.7201 -1.7017 0.9702
-5.3031 5.1194 -1.7017 0.9702
-5.8803 4.4444 -1.7017 0.9702
-6.3722 3.7049 -1.7017 0.9702
-6.7715 2.9116 -1.7017 0.9702
-7.0725 2.0760 -1.7017 0.9702
-7.2709 1.2103 -1.7017 0.9702
-7.3637 0.3270 -1.7017 0.9702
-7.3496 -0.5610 -1.7017 0.9702
-7.2287 -1.4409 -1.7017 0.9702
-7.0029 -2.2999 -1.7017 0.9702
-6.6755 -3.1255 -1.7017 0.9702
-6.2511 -3.9057 -1.7017 0.9702
-5.7360 -4.6292 -1.7017 0.9702
-5.1376 -5.2855 -1.7017 0.9702
-4.4646 -5.8650 -1.7017 0.9702
-3.7267 -6.3594 -1.7017 0.9702
-2.9348 -6.7615 -1.7017 0.9702
-2.1003 -7.0654 -1.7017 0.9702
-1.2352 -7.2667 -1.7017 0.9702
-0.3523 -7.3625 -1.7017 0.9702
0.5358 -7.3514 -1.7017 0.9702
1.4161 -7.2336 -1.7017 0.9702
2.2759 -7.0108 -1.7017 0.9702
3.1026 -6.6862 -1.7017 0.9702
3.8842 -6.2645 -1.7017 0.9702
4.6095 -5.7518 -1.7017 0.9702
5.2678 -5.1557 -1.7017 0.9702
5.8497 -4.4846 -1.7017 0.9702
6.3466 -3.7485 -1.7017 0.9702
6.7514 -2.9580 -1.7017 0.9702
7.0581 -2.1245 -1.7017 0.9702
7.2624 -1.2602 -1.7017 0.9702
7.3613 -0.3775 -1.7017 0.9702
7.3532 0.5106 -1.7017 0.9702
7.2384 1.3913 -1.7017 0.9702
6.3908 2.0504 -1.5495 0.9728
6.0978 2.8042 -1.5495 0.9728
4.4565 2.7421 -1.2080 0.9787
5.2517 4.1792 -1.5495 0.9728
4.7110 4.7805 -1.5495 0.9728
4.1018 5.3124 -1.5495 0.9728
3.4331 5.7672 -1.5495 0.9728
2.7145 6.1383 -1.5495 0.9728
1.9565 6.4202 -1.5495 0.9728
1.1701 6.6089 -1.5495 0.9728
0.3667 6.7017 -1.5495 0.9728
-0.4483 6.7930 -1.5717 0.9724
-1.3665 7.2432 -1.7017 0.9702
-2.2277 7.0262 -1.7017 0.9702
-3.0566 6.7073 -1.7017 0.9702
-3.8411 6.2910 -1.7017 0.9702
-4.5699 5.7833 -1.7017 0.9702
-5.2323 5.1917 -1.7017 0.9702
-5.8188 4.5247 -1.7017 0.9702
-6.3207 3.7920 -1.7017 0.9702
-6.7309 3.0042 -1.7017 0.9702
-7.0434 2.1729 -1.7017 0.9702
-7.2536 1.3100 -1.7017 0.9702
-7.3585 0.4280 -1.7017 0.9702
-7.3566 -0.4601 -1.7017 0.9702
-7.2478 -1.3416 -1.7017 0.9702
-7.0338 -2.2036 -1.7017 0.9702
-6.7177 -3.0336 -1.7017 0.9702
-6.3041 -3.8195 -1.7017 0.9702
-5.7990 -4.5500 -1.7017 0.9702
-5.2096 -5.2145 -1.7017 0.9702
-4.5446 -5.8032 -1.7017 0.9702
-3.8137 -6.3077 -1.7017 0.9702
-3.0273 -6.7206 -1.7017 0.9702
-2.1970 -7.0359 -1.7017 0.9702
-1.3348 -7.2491 -1.7017 0.9702
-0.4533 -7.3570 -1.7017 0.9702
0.4349 -7.3581 -1.7017 0.9702
1.3167 -7.2524 -1.7017 0.9702
2.1794 -7.0414 -1.7017 0.9702
3.0105 -6.7281 -1.7017 0.9702
3.7979 -6.3172 -1.7017 0.9702
4.5301 -5.8145 -1.7017 0.9702
5.1966 -5.2275 -1.7017 0.9702
5.7876 -4.5645 -1.7017 0.9702
6.2946 -3.8353 -1.7017 0.9702
6.7101 -3.0503 -1.7017 0.9702
7.0283 -2.2211 -1.7017 0.9702
7.2444 -1.3597 -1.7017 0.9702
7.3554 -0.4785 -1.7017 0.9702
