ply
format ascii 1.0
element vertex 1574
property float32 x
property float32 y
property float32 z
property float32 I
end_header
4.8302 20.8722 3.3932 0.9169
1.4373 13.4157 2.1370 0.9468
-0.3218 23.0516 3.6514 0.9109
-27.4343 69.4881 11.8325 0.7389
-29.6707 54.7395 9.8616 0.7771
-31.7693 44.7464 8.6917 0.8007
-25.9237 28.5007 6.1021 0.8555
-26.8358 23.1607 5.6144 0.8663
-27.9733 18.7839 5.3367 0.8724
-27.9859 14.2386 4.9732 0.8806
-33.2204 12.1249 5.6011 0.8666
-43.1474 10.0695 7.0175 0.8357
-84.2793 -1.0200 13.3495 0.7108
-34.0479 -18.3736 6.1277 0.8550
-37.0460 -26.1991 7.1865 0.8321
-29.0370 -26.3134 6.2065 0.8533
-26.8991 -31.0509 6.5067 0.8467
-26.1112 -38.7300 7.3981 0.8276
-27.0861 -52.9937 9.4262 0.7858
3.9164 -29.7390 4.7509 0.8856
7.6723 -29.8447 4.8806 0.8827
11.5989 -29.7006 5.0501 0.8789
15.7203 -29.2607 5.2609 0.8741
5.5676 -7.9038 1.5312 0.9616
26.7472 -29.6260 6.3217 0.8507
33.5641 -29.1854 7.0447 0.8352
43.9065 -29.7197 8.3974 0.8068
15.1194 -7.7632 2.6919 0.9335
20.6906 -7.6388 3.4933 0.9146
22.1514 -5.2563 3.6059 0.9119
41.9165 -4.7268 6.6810 0.8430
93.3034 12.1114 14.9018 0.6832
36.0821 9.2045 5.8979 0.8600
23.2978 9.0487 3.9586 0.9037
16.8938 9.0358 3.0344 0.9253
12.9198 9.0652 2.4998 0.9381
10.2952 9.2602 2.1932 0.9455
8.0722 9.2485 1.9443 0.9515
6.3195 9.2989 1.7807 0.9555
6.3238 12.2600 2.1849 0.9457
6.3411 17.0781 2.8853 0.9289
5.1173 21.3889 3.4833 0.9148
2.4182 21.0926 3.3626 0.9176
-0.1392 21.2815 3.3707 0.9174
-26.9181 69.6897 11.8325 0.7389
-31.7381 59.6044 10.6953 0.7607
-31.6230 45.2476 8.7433 0.7997
-25.9225 28.9274 6.1521 0.8544
-26.6632 23.3591 5.6144 0.8663
-27.7541 18.9370 5.3216 0.8728
-27.9852 14.5006 4.9921 0.8802
-32.0801 11.9791 5.4236 0.8705
-41.9283 10.1136 6.8313 0.8397
-82.5928 -0.3872 13.0816 0.7157
-21.2444 -8.1606 3.6045 0.9120
-49.5406 -26.2614 8.8807 0.7969
-37.5045 -26.1081 7.2377 0.8310
-29.4722 -26.3122 6.2576 0.8521
-26.8978 -30.5879 6.4513 0.8479
-26.3978 -38.5352 7.3981 0.8276
-26.9437 -51.7643 9.2428 0.7895
4.2468 -34.2064 5.4594 0.8697
7.4379 -29.8496 4.8723 0.8829
11.3456 -29.7003 5.0356 0.8792
15.4506 -29.2777 5.2432 0.8745
5.5604 -8.0192 1.5456 0.9613
26.4555 -29.7436 6.3048 0.8511
33.0636 -29.1840 6.9849 0.8364
58.3077 -40.1016 11.2084 0.7508
67.7090 -35.4030 12.1015 0.7339
20.8031 -7.8561 3.5220 0.9139
21.4801 -5.2657 3.5029 0.9143
41.9534 -5.0464 6.6927 0.8427
93.3758 11.4171 14.8994 0.6832
44.0348 10.8859 7.1844 0.8322
23.7896 9.0371 4.0306 0.9021
17.1805 9.0259 3.0738 0.9244
13.0832 9.0358 2.5183 0.9376
10.4275 9.2403 2.2067 0.9451
8.1930 9.2475 1.9568 0.9512
6.4126 9.2869 1.7875 0.9553
6.3271 12.0463 2.1551 0.9464
6.3400 16.6946 2.8284 0.9302
5.3193 21.5263 3.5120 0.9141
2.5697 21.0337 3.3562 0.9178
0.0188 21.3854 3.3871 0.9170
-26.6282 70.4905 11.9346 0.7370
-31.5902 60.4026 10.7962 0.7588
-31.4761 45.7567 8.7963 0.7986
-25.9213 29.3614 6.2034 0.8533
-26.4892 23.5563 5.6144 0.8663
-27.3149 18.9358 5.2641 0.8741
-27.9844 14.7646 5.0114 0.8797
-31.7470 12.1239 5.3824 0.8714
-40.5597 10.1024 6.6203 0.8443
-82.8426 0.2263 13.1210 0.7150
-50.7721 -26.4336 9.0661 0.7931
-38.5326 -26.4016 7.3981 0.8276
-29.9146 -26.3109 6.3099 0.8510
-27.0727 -30.3301 6.4392 0.8482
-26.6830 -38.3383 7.3981 0.8276
-26.9411 -50.8349 9.1123 0.7922
4.0475 -34.7055 5.5341 0.8681
7.2043 -29.8543 4.8642 0.8830
10.9655 -29.3569 4.9634 0.8808
15.3510 -29.6193 5.2839 0.8736
20.2869 -29.7264 5.7001 0.8644
26.0619 -29.7425 6.2634 0.8520
32.6307 -29.2353 6.9391 0.8374
42.5636 -29.7410 8.2241 0.8104
66.5306 -35.4178 11.9375 0.7369
20.6642 -7.9793 3.5084 0.9142
21.4261 -5.4212 3.5005 0.9144
41.9676 -5.3642 6.7011 0.8425
46.2146 11.0616 7.5264 0.8249
24.3278 9.0356 4.1103 0.9002
17.4928 9.0250 3.1176 0.9234
13.2489 9.0058 2.5373 0.9372
10.5614 9.2199 2.2205 0.9448
8.3154 9.2466 1.9696 0.9509
6.5146 9.2866 1.7967 0.9551
6.3265 11.8311 2.1249 0.9471
6.3390 16.3259 2.7738 0.9315
7.0582 27.6800 4.5244 0.8908
4.3253 33.3466 5.3258 0.8727
0.2174 26.2073 4.1510 0.8993
-31.7321 61.7855 11.0010 0.7548
-31.1358 45.9889 8.7963 0.7986
-25.9201 29.8031 6.2558 0.8522
-26.3137 23.7521 5.6144 0.8663
-26.8850 18.9346 5.2082 0.8753
-27.9837 15.0307 5.0311 0.8793
-31.0489 12.1219 5.2792 0.8737
-39.3003 10.0989 6.4268 0.8485
-82.8314 0.8408 13.1199 0.7150
-33.9283 -17.3454 6.0352 0.8570
-38.7274 -26.1150 7.3981 0.8276
-30.4277 -26.3645 6.3767 0.8495
-27.0715 -29.8795 6.3860 0.8493
-26.9666 -38.1394 7.3981 0.8276
-27.1151 -50.2586 9.0448 0.7935
3.7867 -34.7048 5.5293 0.8682
6.9714 -29.8589 4.8564 0.8832
10.7178 -29.3562 4.9498 0.8811
15.1199 -29.7109 5.2800 0.8737
19.9647 -29.7255 5.6714 0.8650
25.6734 -29.7414 6.2229 0.8529
32.4200 -29.4831 6.9406 0.8374
41.8197 -29.6853 8.1227 0.8125
65.3627 -35.4209 11.7748 0.7400
22.9256 -9.0486 3.9037 0.9050
21.5140 -5.6136 3.5216 0.9139
42.4293 -5.7434 6.7814 0.8408
46.6909 10.8101 7.5907 0.8236
25.6303 9.3036 4.3186 0.8955
17.8142 9.0241 3.1629 0.9223
13.4169 8.9752 2.5567 0.9367
10.6968 9.1992 2.2346 0.9445
8.4719 9.2812 1.9903 0.9504
6.6178 9.2864 1.8061 0.9549
6.3259 11.6218 2.0957 0.9478
6.3380 15.9710 2.7215 0.9328
6.2905 23.9265 3.9184 0.9047
2.7462 20.0079 3.1987 0.9215
0.3289 20.9311 3.3156 0.9187
-32.2589 63.9748 11.3479 0.7481
-30.7938 46.2186 8.7963 0.7986
-25.9189 30.2520 6.3095 0.8510
-26.1368 23.9467 5.6144 0.8663
-26.4641 18.9334 5.1538 0.8765
-27.9830 15.2988 5.0512 0.8788
-30.3769 12.1201 5.1801 0.8759
-38.1122 10.0956 6.2446 0.8524
-83.1516 1.4610 13.1720 0.7140
-33.9818 -17.0560 6.0221 0.8573
-38.9201 -25.8270 7.3981 0.8276
-30.8863 -26.3632 6.4316 0.8484
-26.8941 -29.2447 6.2928 0.8514
-26.7295 -37.2152 7.2571 0.8306
-26.9361 -49.0520 8.8634 0.7972
4.1476 -40.8182 6.4983 0.8469
6.7278 -29.8129 4.8406 0.8836
10.4714 -29.3555 4.9364 0.8814
4.0308 -8.0680 1.4284 0.9641
19.6455 -29.7246 5.6432 0.8656
25.2899 -29.7403 6.1832 0.8538
32.1306 -29.6583 6.9256 0.8377
41.3295 -29.8008 8.0702 0.8135
64.2035 -35.4114 11.6130 0.7431
23.1263 -9.3266 3.9495 0.9039
22.2033 -5.9697 3.6415 0.9111
41.7145 -5.9621 6.6741 0.8431
47.6962 10.6706 7.7411 0.8204
26.0348 9.2324 4.3751 0.8942
18.2196 9.0603 3.2228 0.9209
13.5873 8.9439 2.5764 0.9362
10.8338 9.1781 2.2489 0.9441
8.5987 9.2809 2.0039 0.9501
6.7220 9.2861 1.8157 0.9546
6.3253 11.4182 2.0674 0.9485
6.3370 15.6295 2.6712 0.9340
6.3588 23.4768 3.8523 0.9062
2.8998 20.0228 3.2044 0.9213
0.4847 20.9501 3.3191 0.9186
-31.6651 63.9732 11.3056 0.7490
-30.4501 46.4458 8.7963 0.7986
-25.9176 30.7086 6.3645 0.8498
-25.9584 24.1399 5.6144 0.8663
-26.0519 18.9322 5.1007 0.8777
-27.9822 15.5691 5.0718 0.8784
-29.4428 12.0013 5.0358 0.8792
-36.9896 10.0925 6.0727 0.8562
-81.6094 2.0400 12.9297 0.7185
-53.3948 -26.3057 9.4275 0.7858
-39.1106 -25.5376 7.3981 0.8276
-31.2876 -26.3071 6.4744 0.8474
-26.8929 -28.8115 6.2423 0.8525
-26.8180 -36.7598 7.2069 0.8317
-26.9338 -48.1968 8.7447 0.7996
3.8418 -40.8173 6.4934 0.8470
6.4876 -29.7752 4.8266 0.8839
10.2263 -29.3548 4.9234 0.8817
3.9549 -8.0652 1.4227 0.9643
19.3296 -29.7236 5.6157 0.8662
24.9112 -29.7393 6.1444 0.8546
31.7629 -29.7583 6.8937 0.8384
40.6288 -29.7562 7.9762 0.8155
62.7250 -35.2057 11.3925 0.7473
27.0099 -11.1267 4.6267 0.8884
21.2033 -5.8699 3.4846 0.9148
41.7508 -6.2837 6.6872 0.8428
50.2311 10.8471 8.1392 0.8121
26.6564 9.2307 4.4679 0.8920
18.3558 8.9587 3.2350 0.9206
13.7600 8.9121 2.5966 0.9358
10.9724 9.1565 2.2635 0.9438
8.7272 9.2805 2.0177 0.9497
6.8274 9.2858 1.8255 0.9544
6.3248 11.2201 2.0400 0.9492
6.3361 15.3001 2.6229 0.9351
6.4624 23.1759 3.8107 0.9072
3.0668 20.1224 3.2239 0.9209
0.6345 20.7629 3.2901 0.9193
-31.0749 63.9715 11.2643 0.7497
-30.1045 46.6705 8.7963 0.7986
-25.9113 31.1675 6.4196 0.8486
-25.7786 24.3319 5.6144 0.8663
-25.9096 19.1243 5.1005 0.8777
-27.9815 15.8419 5.0928 0.8779
-29.1059 12.1165 4.9934 0.8801
-35.8012 10.0542 5.8897 0.8602
-82.0822 2.6612 13.0074 0.7171
-54.2904 -26.2482 9.5510 0.7833
-39.6624 -25.4802 7.4665 0.8262
-31.7612 -26.3058 6.5318 0.8462
-26.8917 -28.3849 6.1929 0.8535
-26.8164 -36.1906 7.1341 0.8333
-26.1238 -45.9442 8.3709 0.8073
3.8476 -44.4102 7.0602 0.8348
6.2510 -29.7486 4.8146 0.8842
9.9825 -29.3542 4.9107 0.8820
3.9041 -8.1134 1.4261 0.9642
19.0166 -29.7225 5.5887 0.8668
24.5373 -29.7382 6.1064 0.8554
31.2932 -29.7570 6.8395 0.8396
47.2708 -35.1628 9.3312 0.7877
61.7032 -35.2363 11.2541 0.7499
22.1204 -9.3049 3.8009 0.9074
21.2587 -6.0553 3.5010 0.9144
41.3488 -6.5375 6.6304 0.8441
47.4935 -1.7161 7.5271 0.8249
51.6940 10.7620 8.3631 0.8075
27.7829 9.3906 4.6449 0.8880
18.7043 8.9577 3.2847 0.9194
13.9352 8.8796 2.6171 0.9353
11.1372 9.1547 2.2834 0.9433
8.8575 9.2801 2.0319 0.9494
6.9338 9.2855 1.8355 0.9542
6.3243 11.0269 2.0134 0.9498
6.3352 14.9827 2.5764 0.9362
6.3552 22.1552 3.6506 0.9109
3.1924 19.9525 3.2004 0.9214
0.7910 20.8200 3.2999 0.9191
-30.4900 63.9699 11.2239 0.7505
-29.7576 46.8924 8.7963 0.7986
-25.9150 31.6462 6.4784 0.8473
-25.7184 24.6386 5.6410 0.8657
-25.9088 19.4221 5.1285 0.8771
-27.9807 16.1166 5.1143 0.8774
-28.5044 12.1149 4.9055 0.8821
-34.7968 10.0514 5.7366 0.8636
-81.8313 3.2606 12.9711 0.7177
-55.6031 -26.3761 9.7473 0.7794
-40.3145 -25.4784 7.5535 0.8244
-32.2438 -26.3045 6.5908 0.8449
-26.9456 -28.0227 6.1574 0.8543
-26.8660 -35.7005 7.0766 0.8345
-26.1216 -45.1569 8.2626 0.8096
3.5183 -44.4375 7.0602 0.8348
6.0138 -29.7128 4.8015 0.8845
9.7398 -29.3535 4.8984 0.8823
6.5771 10.6703 1.5390 0.9507
6.3318 13.7445 1.8581 0.9408
6.3485 19.7500 2.5472 0.9198
8.6782 45.0450 5.6325 0.8312
1.5985 22.9180 2.8208 0.9116
-2.8479 55.7360 6.8524 0.7986
-27.4693 62.6667 8.4013 0.7590
-31.6319 53.5193 7.6333 0.7784
-29.7500 38.7716 6.0005 0.8212
-25.8944 26.4291 4.5431 0.8615
-27.9765 22.3899 4.3997 0.8655
-25.9181 16.0422 3.7426 0.8844
-25.9642 12.0196 3.5130 0.8911
-34.7586 11.2441 4.4856 0.8631
-52.0564 10.1291 6.5116 0.8076
-98.3993 -4.8449 12.0965 0.6723
-44.6446 -26.2750 6.3605 0.8116
-34.4053 -26.2985 5.3172 0.8399
-26.9625 -26.3191 4.6263 0.8591
-26.9059 -33.4919 5.2749 0.8410
-26.9332 -43.3341 6.2647 0.8141
4.9770 -29.3402 3.6540 0.8870
8.8656 -29.8488 3.8232 0.8821
15.5882 -35.9236 4.8082 0.8540
17.4651 -29.8017 4.2413 0.8700
5.8373 -7.6661 1.1831 0.9619
28.9311 -29.7485 5.0952 0.8460
36.9199 -29.7727 5.8235 0.8260
47.7534 -29.8028 6.9116 0.7970
22.4225 -10.4812 3.0391 0.9051
24.6877 -8.0875 3.1898 0.9006
42.1907 -8.3720 5.2814 0.8408
64.6937 -4.8741 7.9659 0.7699
64.5039 10.8188 8.0307 0.7683
31.2472 9.2179 4.0001 0.8770
20.2353 8.7360 2.7062 0.9150
15.7344 9.1819 2.2368 0.9292
12.2223 9.2708 1.8836 0.9400
9.8290 9.5236 1.6804 0.9463
7.6738 9.4800 1.4976 0.9520
6.5766 10.4944 1.5207 0.9513
6.3311 13.4789 1.8285 0.9418
6.3471 19.2542 2.4893 0.9215
6.0580 30.2356 3.7862 0.8831
1.7654 22.8651 2.8158 0.9117
-2.4087 55.1694 6.7804 0.8005
-27.0721 63.0281 8.4226 0.7585
-31.3325 53.9220 7.6574 0.7778
-29.7483 39.3707 6.0589 0.8197
-25.8933 26.8232 4.5777 0.8605
-27.9756 22.7317 4.4260 0.8648
-27.9766 17.6047 4.0586 0.8753
-25.9618 12.2532 3.5249 0.8907
-34.7578 11.5294 4.4964 0.8628
-49.8698 10.0882 6.2473 0.8146
-97.9583 -4.0949 12.0383 0.6736
-45.6344 -26.4037 6.4735 0.8086
-28.3091 -21.3079 4.3505 0.8669
-27.3646 -26.3180 4.6617 0.8581
-26.9377 -33.0267 5.2330 0.8422
-27.1076 -42.9016 6.2311 0.8150
4.7532 -29.3396 3.6494 0.8871
8.6612 -29.9736 3.8309 0.8818
15.4181 -36.2660 4.8386 0.8532
17.0854 -29.6559 4.2024 0.8712
5.7644 -7.6881 1.1799 0.9620
28.1754 -29.4048 5.0003 0.8486
36.3626 -29.7711 5.7703 0.8275
46.9704 -29.8006 6.8301 0.7992
22.3690 -10.6591 3.0425 0.9050
91.0037 -30.5616 11.7871 0.6792
42.2421 -8.7084 5.2957 0.8405
64.5940 -5.3488 7.9583 0.7701
93.6804 14.9986 11.6490 0.6823
32.0527 9.1976 4.0944 0.8743
20.6523 8.7349 2.7533 0.9136
15.9516 9.1507 2.2580 0.9286
12.4067 9.2664 1.9013 0.9395
9.9756 9.5232 1.6934 0.9459
4.2276 5.1442 0.8176 0.9735
6.5259 10.2438 1.4913 0.9522
6.3304 13.2215 1.7999 0.9426
6.3458 18.7804 2.4340 0.9232
6.7272 32.3282 4.0544 0.8754
1.1349 13.4035 1.6516 0.9472
-0.6765 18.6727 2.2942 0.9275
-27.7843 66.0328 8.7963 0.7492
-30.7989 53.9205 7.6245 0.7786
-29.7466 39.9818 6.1188 0.8180
-25.8922 27.2234 4.6130 0.8595
-27.8972 23.0136 4.4405 0.8644
-27.9758 17.8953 4.0776 0.8747
-25.9629 12.4900 3.5375 0.8904
-34.7570 11.8160 4.5075 0.8625
-48.1771 10.1184 6.0445 0.8200
-98.5788 -3.3884 12.1111 0.6720
-46.1917 -26.2707 6.5247 0.8072
-35.6569 -26.4264 5.4494 0.8362
-27.7728 -26.3169 4.6979 0.8571
-27.0793 -32.7020 5.2132 0.8427
-26.9293 -41.9273 6.1184 0.8181
-26.9548 -55.7656 7.6051 0.7791
4.5300 -29.3390 3.6451 0.8872
8.4803 -30.1852 3.8498 0.8813
15.1005 -36.2639 4.8233 0.8536
16.6331 -29.3727 4.1446 0.8728
5.6912 -7.7090 1.1765 0.9621
27.7588 -29.4036 4.9650 0.8496
35.8153 -29.7696 5.7183 0.8289
46.2057 -29.7985 6.7508 0.8013
22.8863 -11.1147 3.1239 0.9025
22.9225 -7.8877 2.9765 0.9069
41.0954 -8.7903 5.1600 0.8442
44.3906 -4.0076 5.4727 0.8356
93.6784 14.2866 11.6352 0.6826
32.9643 9.1951 4.2020 0.8712
21.0841 8.7337 2.8021 0.9121
16.2115 9.1406 2.2851 0.9277
12.5628 9.2386 1.9147 0.9391
10.1245 9.5228 1.7066 0.9455
4.2408 5.0828 0.8128 0.9737
6.5757 10.1549 1.4854 0.9524
6.3311 12.9751 1.7727 0.9435
6.3445 18.3273 2.3813 0.9248
6.5639 30.4108 3.8200 0.8822
1.2280 13.3263 1.6432 0.9475
-1.5782 54.7916 6.7303 0.8018
-27.2937 66.2371 8.7963 0.7492
-30.2698 53.9190 7.5923 0.7794
-29.7449 40.6049 6.1802 0.8164
-27.9658 29.8439 5.0218 0.8480
-27.9736 23.4276 4.4802 0.8633
-27.9749 18.1886 4.0971 0.8742
-25.9622 12.7277 3.5502 0.8900
-28.8143 10.0348 3.7464 0.8843
-46.4387 10.1135 5.8356 0.8257
-99.0360 -2.6689 12.1645 0.6708
-46.9956 -26.2685 6.6106 0.8050
-36.0933 -26.3372 5.4861 0.8352
-28.1875 -26.3157 4.7349 0.8561
-26.9017 -32.0012 5.1332 0.8449
-26.9174 -41.2329 6.0461 0.8200
-26.9203 -54.6560 7.4808 0.7823
4.3074 -29.3384 3.6409 0.8874
10.8099 -39.6031 5.0405 0.8475
14.7611 -36.2033 4.8005 0.8542
16.3462 -29.3719 4.1273 0.8733
5.6388 -7.7578 1.1776 0.9621
27.3481 -29.4025 4.9304 0.8506
35.2778 -29.7681 5.6676 0.8303
44.7277 -29.3175 6.5665 0.8061
60.1608 -29.7705 8.2418 0.7630
23.1188 -8.1476 3.0098 0.9059
26.4049 -5.8532 3.3208 0.8967
43.1455 -4.2181 5.3228 0.8397
93.6074 13.5657 11.6136 0.6831
33.9911 9.2103 4.3241 0.8677
22.3078 9.0473 2.9557 0.9075
16.4949 9.1398 2.3154 0.9268
12.7579 9.2371 1.9340 0.9385
10.2220 9.4725 1.7111 0.9454
4.2762 5.0487 0.8124 0.9737
6.3981 9.7218 1.4290 0.9542
6.4272 12.9278 1.7727 0.9435
6.3433 17.8933 2.3310 0.9263
6.6983 29.9541 3.7687 0.8836
1.3271 13.3189 1.6435 0.9475
-1.1778 55.0854 6.7652 0.8009
-26.8863 66.6478 8.8241 0.7485
-29.7451 53.9175 7.5608 0.7802
-29.7431 41.2409 6.2433 0.8147
-27.9646 30.2898 5.0618 0.8469
-27.9726 23.7821 4.5081 0.8625
-27.9741 18.4848 4.1169 0.8736
-25.9616 12.9672 3.5632 0.8896
-28.1416 10.0352 3.6685 0.8866
-44.6128 10.0631 5.6154 0.8317
-48.1102 -26.4250 6.7396 0.8016
-36.5990 -26.2924 5.5332 0.8339
-28.6088 -26.3146 4.7727 0.8550
-26.7032 -31.2908 5.0509 0.8472
-26.9256 -40.5844 5.9801 0.8218
-26.7964 -53.4010 7.3360 0.7860
4.0852 -29.3377 3.6370 0.8875
10.7855 -40.7002 5.1698 0.8439
11.9467 -29.9340 3.9573 0.8782
16.0615 -29.3711 4.1103 0.8738
5.5940 -7.8174 1.1803 0.9620
26.9430 -29.4014 4.8966 0.8515
34.1307 -29.2364 5.5180 0.8343
44.0883 -29.3682 6.5044 0.8078
58.9803 -29.7331 8.1100 0.7663
22.4907 -8.1143 2.9357 0.9081
25.2332 -5.7902 3.1788 0.9009
42.7988 -4.5050 5.2841 0.8408
93.6745 12.8667 11.6098 0.6831
35.3304 9.2924 4.4856 0.8631
22.7470 9.0295 3.0050 0.9061
16.7860 9.1390 2.3467 0.9259
12.9571 9.2356 1.9537 0.9379
10.3749 9.4721 1.7249 0.9450
4.3315 5.0376 0.8157 0.9736
6.3976 9.5658 1.4130 0.9547
6.5229 12.8798 1.7727 0.9435
6.3422 17.4771 2.2828 0.9278
6.9246 29.9223 3.7711 0.8836
1.4358 13.4016 1.6549 0.9471
-0.7607 54.4935 6.6916 0.8028
-27.0968 68.6331 9.0601 0.7428
-29.6707 54.7395 7.6450 0.7781
-29.7413 41.8899 6.3080 0.8130
-27.9633 30.7431 5.1027 0.8458
-27.9716 24.1410 4.5367 0.8617
-27.9733 18.7839 4.1372 0.8730
-25.9609 13.2084 3.5764 0.8892
-27.5806 10.0665 3.6050 0.8884
-43.1474 10.0695 5.4402 0.8365
-48.6692 -26.2638 6.7904 0.8002
-37.1827 -26.2957 5.5918 0.8323
-29.0370 -26.3134 4.8114 0.8539
-26.7223 -30.8467 5.0111 0.8483
-27.1001 -40.1968 5.9525 0.8225
-26.7666 -52.3686 7.2213 0.7890
3.9164 -29.7391 3.6830 0.8861
10.5123 -40.8924 5.1842 0.8435
11.6318 -29.7849 3.9261 0.8791
15.7791 -29.3703 4.0937 0.8743
5.5707 -7.9082 1.1877 0.9618
26.8538 -29.7441 4.9203 0.8509
33.6211 -29.2349 5.4705 0.8356
43.9391 -29.7418 6.5148 0.8075
15.1169 -7.7619 2.0865 0.9338
22.4152 -8.2754 2.9338 0.9082
23.3290 -5.5358 2.9440 0.9079
42.8099 -4.8275 5.2897 0.8406
93.3034 12.1114 11.5523 0.6844
36.0821 9.2045 4.5722 0.8606
23.2008 9.0110 3.0560 0.9046
17.0851 9.1381 2.3790 0.9249
13.1604 9.2340 1.9740 0.9373
10.5302 9.4716 1.7390 0.9445
8.2739 9.4796 1.5449 0.9506
6.3972 9.4133 1.3975 0.9552
6.5326 12.6649 1.7497 0.9442
6.3411 17.0781 2.2368 0.9292
7.1403 29.8444 3.7678 0.8837
5.3519 46.6810 5.7692 0.8275
-0.3556 54.3755 6.6766 0.8032
-27.0578 70.0515 9.2206 0.7389
-29.7383 55.8487 7.7689 0.7749
-29.7047 42.5028 6.3669 0.8114
-27.9621 31.2033 5.1445 0.8446
-27.9706 24.5045 4.5659 0.8608
-27.7541 18.9370 4.1254 0.8734
-25.9602 13.4514 3.5900 0.8888
-26.9055 10.0469 3.5263 0.8907
-41.9284 10.1136 5.2958 0.8404
-49.5406 -26.2614 6.8846 0.7977
-37.8503 -26.3488 5.6626 0.8304
-29.3975 -26.2455 4.8388 0.8532
-26.7410 -30.4095 4.9721 0.8494
-26.9220 -39.3004 5.8491 0.8253
-26.8542 -51.5923 7.1415 0.7910
4.2818 -34.4884 4.2671 0.8693
10.3410 -41.5001 5.2514 0.8417
11.3225 -29.6399 3.8958 0.8800
15.4990 -29.3695 4.0775 0.8747
5.5620 -8.0215 1.1985 0.9614
26.4538 -29.7416 4.8873 0.8518
33.1198 -29.2335 5.4241 0.8369
43.3153 -29.7905 6.4549 0.8091
38.9402 -20.3607 5.3954 0.8377
22.2662 -8.4087 2.9224 0.9085
23.0498 -5.6504 2.9140 0.9088
42.7108 -5.1375 5.2820 0.8408
93.3758 11.4171 11.5505 0.6845
44.0208 10.8824 5.5678 0.8330
23.5453 8.9443 3.0926 0.9035
17.3925 9.1373 2.4123 0.9239
13.4187 9.2675 2.0024 0.9364
10.6881 9.4712 1.7535 0.9441
8.3983 9.4793 1.5550 0.9502
6.4633 9.3604 1.3967 0.9552
6.5320 12.4364 1.7248 0.9450
6.3400 16.6946 2.1927 0.9306
10.8307 43.8301 5.5435 0.8336
3.1537 25.8143 3.1932 0.9005
0.0465 52.9683 6.5037 0.8078
-32.0389 84.8140 11.1321 0.6939
-29.2079 55.8473 7.7384 0.7757
-29.7376 43.2295 6.4425 0.8094
-27.9607 31.6715 5.1874 0.8434
-27.9696 24.8728 4.5957 0.8600
-27.3149 18.9358 4.0809 0.8746
-25.9247 13.6779 3.5990 0.8886
-26.3507 10.0631 3.4634 0.8925
-41.9274 10.4431 5.3053 0.8402
-50.5416 -26.3136 6.9964 0.7948
-38.4531 -26.3472 5.7234 0.8287
-29.8388 -26.2443 4.8792 0.8520
-26.7592 -29.9788 4.9340 0.8505
-26.9203 -38.6793 5.7862 0.8270
-26.9204 -50.7958 7.0587 0.7932
4.0691 -34.8906 4.3131 0.8680
10.2530 -42.4883 5.3667 0.8385
10.9655 -29.3569 3.8478 0.8814
15.3984 -29.7107 4.1089 0.8738
20.3394 -29.8034 4.4304 0.8647
26.0685 -29.7499 4.8568 0.8526
32.6271 -29.2322 5.3788 0.8382
42.6317 -29.7886 6.3858 0.8109
38.9119 -20.7150 5.4126 0.8372
24.9697 -9.6419 3.2865 0.8977
25.3370 -6.4108 3.2090 0.9000
40.9340 -5.2321 5.0670 0.8468
98.3167 11.2816 12.1509 0.6711
45.4493 10.8785 5.7381 0.8283
24.0780 8.9428 3.1537 0.9017
17.7061 9.1351 2.4463 0.9228
13.6331 9.2669 2.0240 0.9357
10.8487 9.4707 1.7682 0.9436
8.5243 9.4789 1.5653 0.9499
6.5662 9.3601 1.4039 0.9550
6.5816 12.3082 1.7138 0.9453
6.3390 16.3260 2.1504 0.9319
6.1339 24.0550 3.0481 0.9048
3.3415 25.7623 3.1897 0.9006
0.4507 54.3255 6.6706 0.8034
-30.9249 83.7388 10.9606 0.6979
-29.1522 56.7622 7.8350 0.7732
-29.7357 43.9210 6.5125 0.8075
-27.9594 32.1479 5.2313 0.8422
-27.9686 25.2459 4.6262 0.8591
-26.8850 18.9346 4.0376 0.8759
-25.9588 13.9431 3.6180 0.8880
-25.9694 10.1388 3.4230 0.8937
-41.9265 10.7738 5.3152 0.8399
-51.2788 -26.2157 7.0713 0.7929
-38.9879 -26.2907 5.7738 0.8274
-30.2221 -26.1863 4.9100 0.8512
-26.8283 -29.6111 4.9061 0.8513
-26.9186 -38.0714 5.7250 0.8287
-27.0788 -50.1912 7.0024 0.7947
-0.5128 -42.7067 5.2441 0.8419
3.8997 -35.7400 4.4144 0.8651
10.7715 -46.1349 5.8170 0.8262
10.7178 -29.3562 3.8372 0.8817
15.1383 -29.7470 4.0982 0.8741
20.1042 -29.9331 4.4273 0.8648
25.7289 -29.8056 4.8346 0.8533
32.4259 -29.4884 5.3816 0.8381
41.9626 -29.7867 6.3185 0.8127
54.8305 -29.7134 7.6573 0.7778
25.1215 -9.9153 3.3161 0.8969
23.0858 -6.0237 2.9295 0.9083
41.0515 -5.5569 5.0865 0.8462
46.7238 10.8177 5.8887 0.8243
25.0287 9.0852 3.2693 0.8983
17.9550 9.0955 2.4713 0.9221
13.8521 9.2663 2.0463 0.9350
10.9463 9.4137 1.7727 0.9435
8.6521 9.4786 1.5758 0.9496
6.6701 9.3598 1.4112 0.9547
6.5810 12.0905 1.6902 0.9460
6.3380 15.9711 2.1098 0.9331
6.1573 23.4198 2.9733 0.9070
2.9808 21.7168 2.6915 0.9154
0.8380 53.3178 6.5474 0.8066
-29.9783 83.0667 10.8432 0.7005
-29.0056 57.5230 7.9101 0.7713
-29.7338 44.6276 6.5844 0.8056
-27.8273 32.4794 5.2515 0.8417
-27.9661 25.6227 4.6571 0.8583
-26.4641 18.9334 3.9954 0.8771
-25.9582 14.1918 3.6325 0.8876
-25.9688 10.3613 3.4330 0.8934
-41.9256 11.1058 5.3254 0.8396
-84.5825 1.4861 10.3870 0.7111
-52.1147 -26.1572 7.1597 0.7906
-39.6162 -26.2890 5.8378 0.8256
-30.6536 -26.1646 4.9484 0.8501
-26.8271 -29.1719 4.8662 0.8524
-27.0932 -37.7216 5.7025 0.8293
-26.9441 -49.0666 6.8732 0.7980
4.1567 -40.9074 5.0487 0.8473
10.5037 -46.5449 5.8587 0.8251
10.4714 -29.3555 3.8268 0.8820
4.0307 -8.0679 1.1074 0.9643
19.8821 -30.0826 4.4275 0.8647
25.3947 -29.8635 4.8133 0.8539
32.2393 -29.7587 5.3871 0.8379
41.3073 -29.7849 6.2529 0.8145
53.9233 -29.7414 7.5612 0.7802
21.9267 -8.8429 2.9030 0.9091
23.0673 -6.2020 2.9329 0.9082
41.6568 -5.9539 5.1668 0.8440
47.5637 10.6410 5.9845 0.8217
26.0348 9.2324 3.3917 0.8946
18.2087 9.0549 2.4969 0.9213
14.0760 9.2656 2.0691 0.9343
11.0158 9.3322 1.7727 0.9435
8.7815 9.4782 1.5865 0.9493
6.7751 9.3595 1.4187 0.9545
6.5627 11.8467 1.6629 0.9469
6.3370 15.6295 2.0708 0.9343
6.2772 23.1753 2.9481 0.9078
3.1409 21.6880 2.6907 0.9155
1.2413 53.6480 6.5889 0.8055
-29.1463 58.8845 8.0673 0.7674
-29.7317 45.3501 6.6583 0.8037
-27.9567 33.1247 5.3221 0.8397
-27.8218 25.8728 4.6649 0.8580
-26.0519 18.9322 3.9542 0.8783
-25.9575 14.4426 3.6473 0.8872
-25.9682 10.5850 3.4432 0.8931
-41.9247 11.4390 5.3359 0.8393
-49.8460 1.2460 6.1222 0.8180
-52.9070 -26.0653 7.2417 0.7884
-40.5264 -26.4620 5.9429 0.8228
-31.0928 -26.1433 4.9879 0.8490
-26.8259 -28.7397 4.8272 0.8535
-26.9153 -36.8932 5.6073 0.8319
-26.9418 -48.2111 6.7812 0.8005
3.8875 -41.3025 5.0938 0.8460
10.3433 -47.4716 5.9655 0.8222
10.2263 -29.3548 3.8168 0.8823
3.9548 -8.0651 1.1029 0.9644
19.6516 -30.2188 4.4260 0.8648
25.0861 -29.9480 4.7968 0.8543
31.7617 -29.7572 5.3440 0.8391
40.6655 -29.7831 6.1890 0.8162
52.9447 -29.7163 7.4547 0.7830
21.8508 -9.0014 2.9017 0.9092
22.6901 -6.2815 2.8908 0.9095
41.6854 -6.2739 5.1760 0.8438
50.3137 10.8649 6.3201 0.8127
26.6565 9.2307 3.4637 0.8925
18.4676 9.0133 2.5232 0.9205
14.3050 9.2650 2.0926 0.9336
11.1130 9.2739 1.7772 0.9433
8.9200 9.4855 1.5987 0.9489
7.0080 9.5314 1.4526 0.9534
6.5621 11.6411 1.6408 0.9476
6.3361 15.3001 2.0333 0.9354
6.3570 22.7978 2.9060 0.9090
3.3193 21.7792 2.7050 0.9150
1.6345 53.4821 6.5698 0.8060
-29.1127 59.9321 8.1810 0.7645
-29.7297 46.0895 6.7343 0.8017
-27.9553 33.6261 5.3692 0.8384
-27.5726 26.0252 4.6554 0.8583
-25.9096 19.1243 3.9541 0.8783
-25.9568 14.6956 3.6624 0.8867
-25.9675 10.8101 3.4537 0.8928
-35.8012 10.0542 4.5659 0.8608
-49.7417 1.6127 6.1107 0.8183
-53.9782 -26.0972 7.3616 0.7854
-41.0935 -26.3996 5.9972 0.8213
-31.5386 -26.1214 5.0282 0.8479
-26.8917 -28.3849 4.8010 0.8542
-26.9137 -36.3220 5.5507 0.8334
-26.9947 -47.4758 6.7057 0.8024
4.0310 -46.5269 5.7342 0.8284
10.7574 -51.1948 6.4232 0.8099
9.9825 -29.3541 3.8069 0.8825
3.9040 -8.1133 1.1055 0.9644
23.2167 -36.2871 5.2894 0.8406
24.7248 -29.9655 4.7701 0.8551
31.2916 -29.7555 5.3019 0.8403
39.4636 -29.3554 6.0391 0.8202
50.7634 -28.9890 7.1777 0.7901
21.7858 -9.1642 2.9020 0.9091
22.6451 -6.4502 2.8911 0.9095
42.3382 -6.6939 5.2630 0.8414
51.4132 10.7036 6.4481 0.8093
27.8099 9.3998 3.6044 0.8884
18.7313 8.9707 2.5501 0.9197
14.5391 9.2644 2.1168 0.9329
11.2816 9.2734 1.7931 0.9428
9.0918 9.5256 1.6168 0.9483
7.1172 9.5311 1.4606 0.9532
6.5616 11.4407 1.6194 0.9482
6.3352 14.9827 1.9973 0.9365
6.3552 22.1552 2.8300 0.9113
7.1465 44.6653 5.5540 0.8334
2.0486 53.9217 6.6255 0.8046
-29.1401 61.1378 8.3159 0.7611
-20.8611 32.8731 4.7804 0.8548
-27.9539 34.1361 5.4174 0.8371
-27.1646 26.0240 4.6190 0.8593
-25.9088 19.4221 3.9758 0.8777
-25.9561 14.9504 3.6779 0.8863
-25.9321 11.0216 3.4597 0.8927
-34.7968 10.0514 4.4472 0.8642
-49.8100 1.9847 6.1208 0.8180
-55.2617 -26.2141 7.5100 0.7815
-41.5884 -26.2835 6.0407 0.8201
-31.9920 -26.0990 5.0695 0.8467
-26.8905 -27.9654 4.7636 0.8553
-26.9122 -35.7619 5.4954 0.8350
-26.9372 -46.5668 6.6054 0.8051
-30.9362 -72.4141 9.6687 0.7281
3.7884 -47.8497 5.8936 0.8241
6.0927 -30.1025 3.7711 0.8836
9.7398 -29.3535 3.7974 0.8828
7.2862 11.8206 1.2149 0.9458
6.4791 14.0642 1.3547 0.9397
6.4806 20.1610 1.8527 0.9185
8.7401 45.3665 4.0420 0.8307
1.5962 22.8851 2.0070 0.9120
-27.0756 61.7686 5.9004 0.7628
-31.6319 53.5193 5.4390 0.7791
-25.8741 33.7204 3.7186 0.8431
-25.8944 26.4291 3.2371 0.8619
-25.9451 20.7641 2.9073 0.8751
-25.9076 16.0357 2.6657 0.8848
-26.8228 12.4171 2.5859 0.8881
-31.1490 10.0764 2.8642 0.8768
-97.6539 19.0015 8.7038 0.6707
-97.6364 6.9920 8.5640 0.6750
-98.3993 -4.8449 8.6193 0.6733
-44.0955 -25.9518 4.4764 0.8143
-34.4053 -26.2985 3.7887 0.8404
-26.9625 -26.3191 3.2964 0.8596
-26.9059 -33.4919 3.7586 0.8416
-26.9332 -43.3341 4.4638 0.8148
4.9770 -29.3402 2.6036 0.8874
8.7998 -29.6273 2.7040 0.8833
15.5882 -35.9236 3.4260 0.8545
17.3262 -29.5647 2.9980 0.8715
5.8170 -7.6395 0.8401 0.9622
35.8610 -36.8741 4.5001 0.8134
37.2950 -30.0751 4.1916 0.8250
47.8991 -29.8938 4.9398 0.7972
63.8532 -29.8476 6.1666 0.7535
24.6713 -8.0821 2.2713 0.9010
42.6108 -8.4554 3.8007 0.8399
64.4498 -4.8557 5.6546 0.7714
64.5039 10.8188 5.7222 0.7690
29.5430 8.7152 2.6948 0.8837
21.4148 9.2452 2.0407 0.9106
16.0972 9.3936 1.6306 0.9279
12.5507 9.5199 1.3782 0.9387
9.7776 9.4737 1.1911 0.9468
4.2017 5.1907 0.5843 0.9735
7.2856 11.6258 1.2003 0.9464
6.5864 14.0225 1.3554 0.9397
6.4792 19.6549 1.8106 0.9203
9.1611 45.7227 4.0797 0.8292
1.7618 22.8185 2.0023 0.9122
-2.3985 54.9344 4.8107 0.8019
-27.0721 63.0281 6.0014 0.7592
-31.3325 53.9220 5.4562 0.7785
-31.6835 41.9319 4.5980 0.8098
-25.8933 26.8233 3.2618 0.8610
-25.9442 21.0811 2.9247 0.8744
-25.9069 16.3023 2.6780 0.8843
-26.7299 12.6157 2.5859 0.8881
-30.3710 10.0743 2.7995 0.8794
-97.6167 19.7470 8.7133 0.6704
-97.6853 7.7243 8.5730 0.6747
-97.6429 -4.0818 8.5501 0.6754
-45.4082 -26.2729 4.5898 0.8101
-28.2898 -21.2934 3.0978 0.8675
-27.3646 -26.3180 3.3216 0.8586
-26.9377 -33.0267 3.7287 0.8427
-26.9312 -42.6224 4.4110 0.8167
4.7532 -29.3396 2.6004 0.8875
8.5596 -29.6218 2.6976 0.8836
15.3922 -36.2051 3.4419 0.8539
17.0391 -29.5755 2.9862 0.8719
5.7447 -7.6618 0.8378 0.9623
28.1754 -29.4048 3.5629 0.8491
37.0862 -30.3636 4.1934 0.8249
47.1988 -29.9456 4.8903 0.7990
61.7347 -29.4173 5.9829 0.7599
91.0037 -30.5616 8.3988 0.6801
45.4873 -9.3774 4.0633 0.8299
62.2687 -5.1562 5.4664 0.7781
93.6857 14.9994 8.3008 0.6832
30.3462 8.7079 2.7621 0.8809
21.8561 9.2440 2.0762 0.9091
16.2697 9.3331 1.6410 0.9275
12.7453 9.5193 1.3918 0.9381
9.9234 9.4733 1.2003 0.9464
4.2015 5.1124 0.5789 0.9738
6.5259 10.2438 1.0627 0.9524
6.5857 13.7548 1.3342 0.9406
6.4779 19.1713 1.7704 0.9220
6.7266 32.3254 2.8887 0.8758
1.1325 13.3747 1.1743 0.9475
-0.6764 18.6705 1.6345 0.9277
-27.1084 64.4263 6.1152 0.7553
-30.7989 53.9205 5.4327 0.7793
-31.6306 42.5140 4.6360 0.8083
-25.8922 27.2234 3.2870 0.8600
-25.9433 21.4018 2.9424 0.8737
-25.9061 16.5714 2.6905 0.8838
-26.6356 12.8136 2.5859 0.8881
-29.5233 10.0368 2.7281 0.8823
-97.3883 8.4282 8.5522 0.6754
-97.6652 -3.3570 8.5496 0.6754
-64.6669 -27.0685 6.1333 0.7547
-45.7828 -26.0382 4.6080 0.8094
-35.5542 -26.3502 3.8717 0.8372
-27.9576 -26.4919 3.3697 0.8567
-26.9582 -32.5558 3.6980 0.8439
-26.9293 -41.9273 4.3596 0.8187
-26.9628 -55.7822 5.4205 0.7798
4.5300 -29.3390 2.5972 0.8876
8.4349 -30.0235 2.7284 0.8823
15.1325 -36.3408 3.4440 0.8538
16.6331 -29.3727 2.9532 0.8732
5.6766 -7.6892 0.8362 0.9624
27.7588 -29.4036 3.5377 0.8501
43.7249 -36.3440 4.9744 0.7959
46.1098 -29.7367 4.8002 0.8023
61.0665 -29.6568 5.9393 0.7614
88.7972 -30.5555 8.2158 0.6859
61.4372 -5.5466 5.3969 0.7806
93.6837 14.2874 8.2910 0.6835
32.3587 9.0262 2.9391 0.8738
22.3131 9.2427 2.1130 0.9076
16.8629 9.5079 1.6937 0.9252
12.9437 9.5188 1.4057 0.9375
10.0715 9.4729 1.2097 0.9460
4.2013 5.0355 0.5737 0.9740
6.5757 10.1549 1.0584 0.9526
6.5849 13.4954 1.3137 0.9415
6.4766 18.7087 1.7321 0.9236
9.7353 45.1041 4.0370 0.8309
1.2291 13.3378 1.1718 0.9476
-1.5823 54.9342 4.8081 0.8020
-27.1046 65.7783 6.2243 0.7515
-30.2698 53.9190 5.4098 0.7801
-31.7732 43.3737 4.7039 0.8058
-25.9261 27.6672 3.3172 0.8588
-25.9424 21.7265 2.9605 0.8730
-25.9159 16.8499 2.7045 0.8833
-26.5398 13.0109 2.5859 0.8881
-28.8197 10.0367 2.6699 0.8847
-97.6304 9.1793 8.5792 0.6745
-97.6632 -2.6320 8.5475 0.6755
-46.5801 -26.0362 4.6686 0.8071
-36.0933 -26.3372 3.9091 0.8358
-28.3750 -26.4908 3.3962 0.8557
-26.9017 -32.0012 3.6576 0.8455
-26.9274 -41.2482 4.3097 0.8205
-27.1107 -55.0424 5.3680 0.7816
4.3074 -29.3384 2.5943 0.8878
8.3842 -30.7167 2.7857 0.8800
12.0470 -29.5467 2.7916 0.8797
16.3462 -29.3719 2.9408 0.8737
5.6337 -7.7507 0.8383 0.9623
27.3481 -29.4025 3.5131 0.8511
43.0747 -36.3473 4.9310 0.7975
44.9321 -29.4514 4.7002 0.8060
60.2966 -29.8377 5.8858 0.7633
86.6847 -30.5496 8.0411 0.6914
35.1243 -7.7860 3.1476 0.8655
44.1462 -4.3159 3.8807 0.8369
93.6073 13.5657 8.2751 0.6840
33.2100 8.9986 3.0103 0.8710
22.7865 9.2414 2.1513 0.9060
17.1577 9.5071 1.7161 0.9243
13.1462 9.5182 1.4200 0.9369
10.2220 9.4725 1.2192 0.9456
4.2011 4.9600 0.5687 0.9742
6.4207 9.7562 1.0218 0.9542
6.5787 13.2327 1.2929 0.9424
6.4753 18.2656 1.6955 0.9251
6.2474 27.9378 2.5046 0.8914
1.3289 13.3373 1.1726 0.9476
-1.1656 54.5173 4.7707 0.8034
-27.1008 67.1794 6.3377 0.7476
-29.7451 53.9175 5.3874 0.7809
-31.7713 44.0531 4.7519 0.8041
-25.9249 28.0806 3.3436 0.8577
-25.9415 22.0552 2.9790 0.8722
-25.9151 17.1242 2.7176 0.8827
-26.4426 13.2074 2.5859 0.8881
-28.1404 10.0348 2.6138 0.8870
-97.6283 9.9103 8.5853 0.6743
-97.7121 -1.9080 8.5503 0.6754
-46.6978 -25.6492 4.6612 0.8074
-36.5990 -26.2923 3.9426 0.8345
-28.6088 -26.3146 3.4007 0.8555
-26.9004 -31.5219 3.6255 0.8467
-26.9256 -40.5844 4.2611 0.8224
-26.9571 -53.7212 5.2585 0.7856
4.0852 -29.3377 2.5915 0.8879
10.8017 -40.7613 3.6892 0.8442
11.7940 -29.5513 2.7837 0.8801
16.0615 -29.3711 2.9288 0.8742
5.5937 -7.8170 0.8410 0.9621
26.9430 -29.4014 3.4890 0.8520
42.5238 -36.4259 4.8987 0.7987
44.2102 -29.4494 4.6475 0.8079
59.1818 -29.8346 5.7984 0.7663
84.7682 -30.5830 7.8842 0.6964
43.5599 -4.5851 3.8321 0.8387
93.6798 12.8674 8.2729 0.6841
34.1380 8.9788 3.0883 0.8679
23.2534 9.2305 2.1888 0.9044
17.3691 9.4565 1.7302 0.9237
13.3528 9.5176 1.4346 0.9363
10.3749 9.4721 1.2291 0.9452
4.2009 4.8858 0.5637 0.9745
6.4203 9.5997 1.0104 0.9547
6.5333 12.9002 1.2651 0.9436
6.4742 17.8408 1.6605 0.9266
10.4983 45.3644 4.0738 0.8295
1.4408 13.4480 1.1833 0.9471
-0.7552 54.0945 4.7331 0.8047
-27.0968 68.6331 6.4556 0.7436
-29.6707 54.7395 5.4474 0.7788
-31.7694 44.7464 4.8012 0.8022
-25.9238 28.5008 3.3707 0.8567
-25.9406 22.3881 2.9979 0.8715
-25.9144 17.4014 2.7309 0.8822
-26.3439 13.4032 2.5859 0.8881
-27.7659 10.1341 2.5859 0.8881
-43.1475 10.0695 3.8763 0.8370
-97.6771 10.6481 8.5963 0.6740
-97.7101 -1.1825 8.5491 0.6755
-58.9934 -7.8802 5.2071 0.7874
-48.5461 -26.1973 4.8262 0.8013
-28.3262 -20.0324 3.0353 0.8700
-29.0370 -26.3134 3.4283 0.8544
-26.8991 -31.0509 3.5942 0.8479
-27.1001 -40.1968 4.2413 0.8231
-27.0865 -52.9945 5.2069 0.7874
3.9164 -29.7391 2.6243 0.8865
10.5207 -40.9251 3.6969 0.8439
11.5424 -29.5558 2.7760 0.8804
15.7791 -29.3703 2.9169 0.8747
5.5809 -7.9227 0.8479 0.9618
26.8176 -29.7039 3.5012 0.8516
33.8345 -29.4205 3.9227 0.8352
44.0127 -29.7916 4.6498 0.8078
15.1144 -7.7607 1.4865 0.9341
83.7323 -30.9132 7.8089 0.6988
42.9927 -4.8481 3.7852 0.8405
93.3034 12.1114 8.2315 0.6854
35.5005 9.0561 3.2054 0.8632
23.6485 9.1849 2.2196 0.9032
17.6786 9.4556 1.7540 0.9227
13.5638 9.5170 1.4496 0.9356
10.5302 9.4716 1.2391 0.9447
8.3159 9.5278 1.1064 0.9505
6.4199 9.4466 0.9993 0.9552
6.5326 12.6649 1.2468 0.9444
6.4730 17.4335 1.6270 0.9280
10.5601 44.1385 3.9706 0.8334
6.2839 54.8105 4.8267 0.8013
-0.3542 54.1583 4.7383 0.8046
-27.0578 70.0515 6.5700 0.7397
-25.6406 48.1531 4.7729 0.8033
-31.6230 45.2476 4.8296 0.8012
-25.9226 28.9274 3.3983 0.8556
-25.9397 22.7252 3.0172 0.8707
-25.9136 17.6811 2.7446 0.8816
-26.2437 13.5983 2.5859 0.8881
-27.6899 10.3398 2.5859 0.8881
-41.9283 10.1136 3.7735 0.8410
-97.6242 11.3758 8.5988 0.6739
-97.6572 -0.4578 8.5440 0.6756
-49.4152 -26.1949 4.8931 0.7989
-37.8503 -26.3488 4.0348 0.8310
-29.4722 -26.3122 3.4566 0.8533
-26.8978 -30.5879 3.5636 0.8491
-26.9220 -39.3004 4.1677 0.8259
-26.7452 -51.3831 5.0679 0.7925
4.1965 -33.8011 2.9799 0.8722
10.4397 -41.8964 3.7775 0.8408
11.2921 -29.5603 2.7685 0.8807
15.4990 -29.3695 2.9054 0.8752
20.7057 -29.8618 3.1792 0.8642
26.5316 -29.8290 3.4926 0.8519
33.3300 -29.4191 3.8894 0.8365
43.3526 -29.8161 4.6033 0.8096
56.0317 -29.2973 5.5318 0.7758
76.9472 -29.0586 7.1961 0.7187
42.8149 -5.1500 3.7728 0.8410
93.3758 11.4171 8.2302 0.6854
44.0284 10.8843 3.9679 0.8335
24.0550 9.1379 2.2513 0.9018
17.9372 9.4234 1.7727 0.9219
13.7792 9.5164 1.4651 0.9350
10.6881 9.4712 1.2494 0.9443
8.4410 9.5274 1.1136 0.9502
6.4815 9.3867 0.9980 0.9552
6.5320 12.4364 1.2290 0.9452
6.4719 17.0420 1.5949 0.9294
6.8985 27.9169 2.5159 0.8910
6.6688 54.5863 4.8112 0.8019
0.0477 54.3703 4.7568 0.8039
-27.0884 71.7089 6.7064 0.7351
-25.5406 48.8352 4.8216 0.8015
-31.7654 46.1772 4.9036 0.7985
-25.9214 29.3615 3.4266 0.8545
-25.9358 23.0642 3.0365 0.8699
-25.9128 17.9638 2.7586 0.8811
-26.1421 13.7926 2.5859 0.8881
-27.6125 10.5449 2.5859 0.8881
-40.5597 10.1024 3.6569 0.8455
-97.6222 12.1103 8.6063 0.6737
-97.7060 0.2669 8.5482 0.6755
-50.1617 -26.1158 4.9477 0.7969
-38.4531 -26.3472 4.0781 0.8293
-29.9146 -26.3109 3.4855 0.8522
-26.9883 -30.2355 3.5458 0.8498
-26.9203 -38.6793 4.1229 0.8276
-26.7762 -50.5238 5.0027 0.7949
4.0534 -34.7555 3.0613 0.8689
11.0306 -45.7103 4.1139 0.8279
10.9655 -29.3569 2.7417 0.8818
15.3260 -29.5709 2.9139 0.8748
20.1400 -29.5111 3.1258 0.8664
26.2563 -29.9643 3.4856 0.8522
32.8342 -29.4177 3.8569 0.8378
42.8795 -29.9617 4.5765 0.8106
55.2623 -29.4191 5.4772 0.7777
23.6130 -9.1180 2.2145 0.9034
42.6229 -5.4480 3.7594 0.8415
98.3167 11.2816 8.6580 0.6721
45.3747 10.8606 4.0819 0.8292
24.5481 9.1174 2.2910 0.9002
18.0066 9.2901 1.7727 0.9219
13.9993 9.5158 1.4809 0.9343
10.8487 9.4707 1.2599 0.9438
8.5676 9.5271 1.1210 0.9499
6.5846 9.3865 1.0031 0.9550
6.6221 12.3839 1.2286 0.9452
6.4709 16.6657 1.5641 0.9307
11.3144 44.3715 4.0062 0.8320
6.0761 46.8445 4.1327 0.8272
0.4503 54.2737 4.7485 0.8042
-27.0839 73.3382 6.8398 0.7306
-25.0937 48.8600 4.8055 0.8021
-31.7634 46.9158 4.9568 0.7965
-25.9201 29.8031 3.4556 0.8533
-25.9378 23.4128 3.0570 0.8691
-25.9120 18.2493 2.7728 0.8805
-26.0390 13.9862 2.5859 0.8881
-27.5335 10.7495 2.5859 0.8881
-39.3003 10.0989 3.5500 0.8497
-97.4396 12.8223 8.5983 0.6739
-97.7040 0.9917 8.5484 0.6755
-51.0139 -26.0803 5.0126 0.7945
-38.9879 -26.2907 4.1141 0.8279
-30.4277 -26.3645 3.5224 0.8507
-26.9871 -29.7863 3.5165 0.8510
-26.9186 -38.0714 4.0793 0.8293
-26.8063 -49.6862 4.9393 0.7972
-0.5128 -42.7025 3.7363 0.8424
3.8997 -35.7400 3.1454 0.8656
10.8050 -46.2783 4.1577 0.8263
10.7178 -29.3562 2.7341 0.8821
15.0454 -29.5643 2.9022 0.8753
20.2931 -30.2145 3.1843 0.8640
26.0320 -30.1568 3.4854 0.8522
32.6104 -29.6563 3.8564 0.8378
42.4448 -30.1290 4.5539 0.8114
55.0317 -29.8224 5.4762 0.7778
74.3570 -29.3482 6.9938 0.7254
43.3616 -11.3143 3.9207 0.8353
42.4488 -5.7461 3.7477 0.8420
46.6909 10.8101 4.1930 0.8249
25.1131 9.1158 2.3374 0.8983
18.2679 9.2540 1.7916 0.9211
14.2242 9.5152 1.4972 0.9336
11.0120 9.4703 1.2707 0.9433
8.6960 9.5267 1.1285 0.9495
6.6889 9.3862 1.0084 0.9548
6.7138 12.3344 1.2286 0.9452
6.4699 16.3034 1.5346 0.9320
6.3608 24.1940 2.1886 0.9044
7.4920 54.5837 4.8202 0.8015
0.8489 54.0110 4.7259 0.8050
-29.0056 57.5230 5.6362 0.7721
-31.7613 47.6707 5.0116 0.7945
-25.9189 30.2520 3.4853 0.8522
-25.9368 23.7634 3.0776 0.8683
-25.9460 18.5627 2.7911 0.8798
-25.9346 14.1789 2.5859 0.8881
-27.4530 10.9535 2.5859 0.8881
-38.1122 10.0956 3.4494 0.8536
-97.3741 13.5493 8.6012 0.6738
-97.6511 1.7158 8.5447 0.6756
-51.8885 -26.0437 5.0794 0.7921
-39.6162 -26.2890 4.1597 0.8262
-30.8862 -26.3632 3.5527 0.8495
-26.8941 -29.2447 3.4760 0.8525
-26.9721 -37.5530 4.0451 0.8306
-26.8770 -48.9444 4.8852 0.7991
4.1567 -40.9074 3.5974 0.8478
10.5239 -46.6342 4.1826 0.8253
10.4714 -29.3555 2.7268 0.8824
4.0306 -8.0677 0.7890 0.9644
24.4383 -36.9764 3.8777 0.8370
31.3190 -36.8304 4.2297 0.8236
32.2912 -29.8066 3.8447 0.8382
42.1987 -30.4276 4.5516 0.8115
54.0649 -29.8194 5.4018 0.7804
73.0208 -29.4487 6.8885 0.7290
43.5111 -11.6987 3.9419 0.8345
42.4252 -6.0637 3.7494 0.8419
47.6962 10.6706 4.2760 0.8218
25.7015 9.1142 2.3858 0.8963
18.6072 9.2530 1.8181 0.9199
14.4542 9.5146 1.5140 0.9329
11.0972 9.4012 1.2724 0.9433
8.8261 9.5264 1.1362 0.9492
6.7942 9.3859 1.0137 0.9545
6.8051 12.2843 1.2286 0.9452
6.5022 16.0367 1.5140 0.9329
6.3588 23.4768 2.1280 0.9070
7.9049 54.5828 4.8252 0.8014
1.2365 53.4390 4.6766 0.8068
-29.1463 58.8845 5.7483 0.7681
-31.6147 48.2222 5.0448 0.7933
-25.9176 30.7087 3.5156 0.8510
-25.9358 24.1189 3.0986 0.8674
-25.9452 18.8547 2.8060 0.8792
-25.9121 14.4174 2.5943 0.8878
-27.3710 11.1568 2.5859 0.8881
-36.9896 10.0925 3.3545 0.8573
-97.6161 14.3219 8.6317 0.6729
-97.6491 2.4409 8.5459 0.6756
-53.5531 -26.3837 5.2230 0.7869
-40.5264 -26.4620 4.2345 0.8234
-31.2876 -26.3071 3.5763 0.8486
-26.8929 -28.8115 3.4481 0.8536
-26.9153 -36.8932 3.9954 0.8325
-26.8746 -48.0910 4.8198 0.8016
3.8875 -41.3025 3.6295 0.8466
10.4232 -47.8380 4.2834 0.8215
10.2263 -29.3548 2.7196 0.8827
3.9548 -8.0651 0.7859 0.9646
24.0454 -36.9753 3.8588 0.8377
30.8986 -36.8870 4.2098 0.8243
31.9562 -29.9395 3.8311 0.8388
41.2227 -30.1912 4.4703 0.8145
53.1214 -29.8154 5.3295 0.7830
72.4841 -29.8597 6.8585 0.7300
42.1726 -6.3472 3.7312 0.8426
50.3137 10.8649 4.5033 0.8133
26.3152 9.1125 2.4364 0.8942
18.9569 9.2521 1.8455 0.9188
14.6893 9.5139 1.5312 0.9321
11.2009 9.3472 1.2764 0.9431
8.9200 9.4855 1.1392 0.9491
7.0080 9.5314 1.0350 0.9536
6.8961 12.2335 1.2286 0.9452
6.6190 15.9831 1.5135 0.9329
6.3570 22.7979 2.0706 0.9093
7.5558 49.5769 4.3875 0.8176
1.6434 53.7724 4.7067 0.8057
-28.8056 59.2999 5.7678 0.7674
-31.7569 49.2323 5.1256 0.7904
-25.9113 31.1675 3.5461 0.8498
-25.9348 24.4792 3.1201 0.8666
-25.9096 19.1243 2.8174 0.8787
-25.9114 14.6699 2.6051 0.8873
-27.2875 11.3596 2.5859 0.8881
-35.8012 10.0542 3.2534 0.8613
-97.6140 15.0626 8.6412 0.6726
-97.4030 3.1579 8.5261 0.6762
-54.2904 -26.2482 5.2758 0.7850
-41.0935 -26.3996 4.2732 0.8219
-31.7612 -26.3058 3.6081 0.8474
-26.8917 -28.3849 3.4209 0.8547
-26.9137 -36.3220 3.9551 0.8340
-26.9395 -47.3786 4.7683 0.8034
4.0387 -46.6162 4.0937 0.8287
10.8207 -51.4963 4.6037 0.8095
9.9825 -29.3541 2.7126 0.8829
3.9040 -8.1132 0.7877 0.9645
23.3582 -36.5082 3.7919 0.8403
30.5235 -36.9933 4.1960 0.8248
31.7023 -30.1460 3.8274 0.8389
39.5727 -29.4365 4.3150 0.8203
52.2078 -29.8138 5.2599 0.7855
71.0037 -29.8675 6.7392 0.7340
42.0381 -6.6464 3.7235 0.8429
51.6940 10.7620 4.6196 0.8090
26.8139 9.0631 2.4763 0.8926
19.3169 9.2511 1.8738 0.9176
14.9297 9.5132 1.5488 0.9314
11.3709 9.3468 1.2878 0.9426
9.0918 9.5256 1.1521 0.9485
7.1172 9.5311 1.0407 0.9534
6.9867 12.1819 1.2286 0.9452
6.6181 15.6516 1.4867 0.9340
6.3552 22.1552 2.0165 0.9116
7.3402 45.8762 4.0647 0.8298
2.0510 53.9844 4.7264 0.8050
-28.3651 59.5119 5.7678 0.7674
-31.7547 50.0394 5.1850 0.7882
-25.9150 31.6463 3.5786 0.8485
-25.9338 24.8448 3.1421 0.8657
-25.9088 19.4221 2.8329 0.8781
-25.9107 14.9243 2.6160 0.8869
-27.2025 11.5615 2.5859 0.8881
-34.7969 10.0514 3.1688 0.8646
-97.6628 15.8123 8.6557 0.6722
-97.6959 3.8927 8.5541 0.6753
-55.4427 -26.2999 5.3687 0.7816
-41.5884 -26.2835 4.3042 0.8207
-32.2438 -26.3045 3.6406 0.8461
-26.9494 -28.0267 3.4017 0.8555
-26.9122 -35.7619 3.9157 0.8355
-26.9372 -46.5668 4.7066 0.8057
-21.8086 -51.0486 4.8564 0.8002
4.1428 -52.3255 4.5922 0.8100
5.9942 -29.6158 2.6436 0.8857
9.7398 -29.3535 2.7058 0.8832
7.2862 11.8206 0.7277 0.9459
6.4895 14.0867 0.8128 0.9398
6.6823 20.7886 1.1444 0.9163
10.5053 54.5291 2.9103 0.8006
1.5895 22.7891 1.1972 0.9126
-27.1103 61.8476 3.5390 0.7630
-26.0627 44.0965 2.6845 0.8145
-28.8144 37.5523 2.4806 0.8273
-24.9276 25.4423 1.8667 0.8670
-26.9729 21.5867 1.8106 0.8708
-26.1094 16.1606 1.6092 0.8843
-27.8452 12.8904 1.6081 0.8843
-32.7624 10.5983 1.8046 0.8712
-51.8745 10.0937 2.7696 0.8092
-97.6364 6.9920 5.1300 0.6756
-98.3993 -4.8449 5.1631 0.6739
-62.1385 -27.1005 3.5528 0.7622
-43.7795 -25.7659 2.6623 0.8159
-34.4053 -26.2985 2.2695 0.8408
-26.8393 -26.1989 1.9656 0.8605
-26.9059 -33.4919 2.2515 0.8419
-26.9332 -43.3341 2.6739 0.8152
4.9770 -29.3402 1.5596 0.8876
8.7989 -29.6240 1.6196 0.8836
15.5882 -35.9236 2.0523 0.8548
17.3772 -29.6517 1.8012 0.8714
5.7964 -7.6124 0.5014 0.9624
28.8678 -29.6834 2.1700 0.8472
37.3340 -30.1066 2.5135 0.8252
48.6609 -30.3693 3.0061 0.7947
66.8604 -31.2533 3.8679 0.7441
24.5910 -8.0558 1.3561 0.9015
84.4839 -6.3651 4.4402 0.7122
96.6345 4.3987 5.0696 0.6788
64.5039 10.8188 3.4277 0.7695
31.4944 9.2908 1.7209 0.8768
21.8751 9.4440 1.2487 0.9090
16.1198 9.4068 0.9781 0.9280
12.5507 9.5199 0.8256 0.9389
9.8290 9.5236 0.7173 0.9467
4.2017 5.1907 0.3500 0.9736
7.2856 11.6258 0.7190 0.9465
6.5864 14.0225 0.8119 0.9398
6.4792 19.6549 1.0846 0.9204
10.9260 54.5314 2.9147 0.8003
1.0418 13.4931 0.7092 0.9472
-27.0722 63.0281 3.5950 0.7598
-26.0606 44.8494 2.7185 0.8124
-28.8128 38.1326 2.5048 0.8258
-24.9133 25.8081 1.8799 0.8662
-26.8120 21.7862 1.8106 0.8708
-26.1257 16.4400 1.6177 0.8837
-27.8445 13.1418 1.6136 0.8840
-31.5327 10.4596 1.7411 0.8754
-49.8168 10.0775 2.6637 0.8158
-97.6853 7.7243 5.1354 0.6754
-97.6429 -4.0818 5.1217 0.6761
-63.3849 -27.0862 3.6125 0.7587
-44.7582 -25.8967 2.7100 0.8129
-28.2862 -21.2906 1.8554 0.8678
-27.2396 -26.1978 1.9807 0.8595
-26.9045 -32.9859 2.2308 0.8432
-27.1076 -42.9016 2.6596 0.8161
4.7532 -29.3396 1.5577 0.8878
8.5587 -29.6185 1.6157 0.8838
15.3940 -36.2095 2.0620 0.8542
17.0858 -29.6567 1.7937 0.8719
5.7284 -7.6401 0.5004 0.9625
28.1754 -29.4048 2.1343 0.8495
37.3316 -30.5645 2.5285 0.8243
48.6284 -30.8526 3.0182 0.7940
61.9053 -29.4987 3.5938 0.7598
91.0038 -30.5616 5.0311 0.6808
63.8668 -5.2886 3.3586 0.7736
93.6113 14.9875 4.9684 0.6840
32.5127 9.3296 1.7727 0.8733
22.3259 9.4427 1.2704 0.9075
16.3155 9.3594 0.9857 0.9274
12.7453 9.5193 0.8337 0.9383
9.9756 9.5232 0.7228 0.9463
4.2015 5.1124 0.3468 0.9738
6.5259 10.2438 0.6365 0.9525
6.5857 13.7548 0.7992 0.9407
6.4779 19.1713 1.0605 0.9221
6.7259 32.3221 1.7302 0.8761
1.1332 13.3833 0.7039 0.9476
-0.6763 18.6673 0.9790 0.9279
-27.1084 64.4263 3.6631 0.7558
-26.0585 45.6213 2.7535 0.8102
-28.8111 38.7245 2.5295 0.8242
-25.8922 27.2234 1.9690 0.8603
-26.6497 21.9845 1.8106 0.8708
-26.1425 16.7226 1.6264 0.8831
-25.8330 12.4276 1.5024 0.8915
-30.1434 10.2476 1.6685 0.8803
-48.2893 10.1419 2.5859 0.8207
-97.4817 8.4363 5.1279 0.6758
-97.6652 -3.3570 5.1214 0.6761
-45.6489 -25.9620 2.7522 0.8103
-35.4803 -26.2955 2.3144 0.8379
-27.6460 -26.1967 1.9960 0.8585
-26.9031 -32.4892 2.2107 0.8445
-26.9293 -41.9273 2.6115 0.8191
-26.9628 -55.7822 3.2470 0.7802
4.5300 -29.3390 1.5558 0.8879
8.4958 -30.2404 1.6462 0.8818
15.0748 -36.2022 2.0552 0.8546
16.6331 -29.3727 1.7690 0.8735
5.6812 -7.6954 0.5013 0.9624
27.7588 -29.4036 2.1192 0.8505
43.5480 -36.1970 2.9677 0.7971
45.9722 -29.6480 2.8669 0.8032
61.1556 -29.7001 3.5630 0.7616
88.7972 -30.5555 4.9215 0.6865
64.8228 -5.8522 3.4110 0.7705
93.6093 14.2760 4.9626 0.6843
33.0284 9.2130 1.7970 0.8717
22.9125 9.4911 1.2997 0.9054
16.8629 9.5079 1.0145 0.9254
12.9437 9.5188 0.8420 0.9377
10.1245 9.5228 0.7284 0.9458
4.2013 5.0355 0.3437 0.9741
6.5757 10.1549 0.6340 0.9527
6.5849 13.4954 0.7870 0.9416
6.4766 18.7087 1.0376 0.9238
11.7788 54.5716 2.9258 0.7996
1.2303 13.3514 0.7027 0.9477
-1.6369 56.8295 2.9795 0.7963
-27.1046 65.7783 3.7285 0.7520
-26.0967 46.4856 2.7938 0.8077
-28.8095 39.3279 2.5549 0.8226
-27.0964 28.9161 2.0768 0.8532
-26.4858 22.1816 1.8106 0.8708
-26.1596 17.0083 1.6353 0.8825
-25.8496 12.6726 1.5088 0.8911
-28.8863 10.0599 1.6030 0.8847
-48.2127 10.4999 2.5859 0.8207
-97.6303 9.1793 5.1391 0.6752
-97.6632 -2.6319 5.1202 0.6762
-46.1063 -25.7714 2.7682 0.8093
-36.0339 -26.2939 2.3378 0.8364
-28.0587 -26.1955 2.0117 0.8575
-26.9017 -32.0012 2.1910 0.8458
-26.9274 -41.2482 2.5816 0.8209
-27.1107 -55.0424 3.2156 0.7821
4.3074 -29.3384 1.5540 0.8880
10.8995 -39.9314 2.1693 0.8472
12.0803 -29.6284 1.6769 0.8797
16.3462 -29.3719 1.7616 0.8740
5.6386 -7.7575 0.5026 0.9623
27.3481 -29.4025 2.1044 0.8514
42.9160 -36.2133 2.9429 0.7986
44.9321 -29.4514 2.8156 0.8064
60.6186 -29.9970 3.5446 0.7627
86.6846 -30.5496 4.8168 0.6920
35.1199 -7.7850 1.8852 0.8658
62.1964 -6.0806 3.2751 0.7786
93.6074 13.5657 4.9570 0.6846
33.9912 9.2103 1.8456 0.8684
23.3987 9.4897 1.3233 0.9038
17.1577 9.5071 1.0280 0.9244
13.1462 9.5182 0.8506 0.9371
10.2220 9.4725 0.7303 0.9457
4.2011 4.9600 0.3407 0.9743
6.4207 9.7562 0.6121 0.9543
6.6036 13.2826 0.7774 0.9423
6.5714 18.5365 1.0307 0.9242
12.2029 54.5704 2.9305 0.7993
1.3309 13.3576 0.7035 0.9477
-1.2213 57.1194 2.9942 0.7955
-27.1008 67.1794 3.7964 0.7481
-26.1359 47.3754 2.8356 0.8052
-28.8078 39.9439 2.5810 0.8210
-27.1268 29.3823 2.0958 0.8520
-26.3205 22.3775 1.8106 0.8708
-26.1820 17.3005 1.6446 0.8819
-25.8667 12.9198 1.5153 0.8906
-33.6049 11.9834 1.8698 0.8668
-40.6252 9.1636 2.1826 0.8464
-97.6283 9.9103 5.1428 0.6750
-97.7121 -1.9080 5.1218 0.6761
-48.1102 -26.4250 2.8767 0.8026
-36.5989 -26.2923 2.3617 0.8348
-28.4442 -26.1631 2.0254 0.8566
-26.9004 -31.5219 2.1718 0.8471
-26.9256 -40.5844 2.5525 0.8228
-26.9571 -53.7212 3.1500 0.7860
4.0852 -29.3377 1.5524 0.8881
10.7227 -40.4631 2.1938 0.8456
11.8265 -29.6327 1.6721 0.8800
16.0615 -29.3711 1.7544 0.8745
5.6178 -7.8507 0.5059 0.9621
26.9430 -29.4014 2.0900 0.8524
34.6700 -29.6983 2.3925 0.8329
44.2102 -29.4494 2.7839 0.8083
60.2315 -30.3638 3.5350 0.7632
84.6600 -30.5439 4.7168 0.6973
62.7823 -6.6084 3.3085 0.7766
93.6054 12.8572 4.9517 0.6849
35.0075 9.2075 1.8971 0.8650
23.9029 9.4883 1.3478 0.9021
17.3691 9.4565 1.0364 0.9238
13.3528 9.5176 0.8594 0.9364
10.4294 9.5219 0.7401 0.9450
4.2009 4.8858 0.3377 0.9745
6.4203 9.5997 0.6052 0.9548
6.7268 13.2822 0.7803 0.9421
6.6757 18.3962 1.0256 0.9246
12.6285 54.5696 2.9355 0.7990
1.4432 13.4706 0.7100 0.9472
-0.7967 57.0710 2.9913 0.7956
-27.0620 68.5451 3.8621 0.7444
-29.1622 53.8013 3.2072 0.7826
-28.8060 40.5726 2.6077 0.8193
-27.1323 29.8294 2.1132 0.8509
-26.1538 22.5721 1.8106 0.8708
-26.2108 17.6004 1.6546 0.8812
-25.8841 13.1693 1.5220 0.8902
-32.8268 11.9813 1.8314 0.8694
-39.2495 9.1598 2.1122 0.8509
-97.6772 10.6481 5.1494 0.6746
-97.7100 -1.1825 5.1211 0.6761
-58.9521 -7.8747 3.1170 0.7880
-48.6692 -26.2638 2.8983 0.8013
-37.1827 -26.2957 2.3867 0.8333
-28.8699 -26.1620 2.0418 0.8555
-26.8991 -31.0508 2.1530 0.8483
-27.1001 -40.1968 2.5407 0.8235
-27.0096 -52.8440 3.1102 0.7884
3.9164 -29.7391 1.5720 0.8868
10.5207 -40.9251 2.2145 0.8443
11.5741 -29.6370 1.6675 0.8803
15.7791 -29.3703 1.7473 0.8750
5.6010 -7.9512 0.5097 0.9618
26.8022 -29.6869 2.0961 0.8520
33.8345 -29.4205 2.3498 0.8356
43.8017 -29.6487 2.7720 0.8091
15.1120 -7.7594 0.8903 0.9342
82.7176 -30.5385 4.6210 0.7024
62.3585 -7.0319 3.2888 0.7777
93.3034 12.1114 4.9309 0.6860
35.9782 9.1780 1.9459 0.8618
24.4260 9.4869 1.3733 0.9004
17.7716 9.5053 1.0562 0.9224
13.5638 9.5170 0.8684 0.9358
10.5856 9.5215 0.7462 0.9446
8.3159 9.5278 0.6628 0.9506
6.4199 9.4466 0.5986 0.9553
6.8355 13.2522 0.7815 0.9420
6.4730 17.4335 0.9746 0.9282
13.0555 54.5684 2.9405 0.7987
6.2583 54.5874 2.8795 0.8025
-0.3616 55.2857 2.8975 0.8014
-27.0578 70.0515 3.9356 0.7402
-26.0376 48.8987 2.9033 0.8010
