ply
format ascii 1.0
element vertex 1571
property float32 x
property float32 y
property float32 z
property float32 I
end_header
2.7541 -19.0080 -1.6804 0.9258
2.9845 -11.0145 -0.9984 0.9552
5.1321 -12.6535 -1.1946 0.9466
9.3465 -16.8663 -1.6870 0.9255
11.3279 -15.6434 -1.6898 0.9254
12.0351 -12.9851 -1.5490 0.9314
13.5358 -11.4622 -1.5518 0.9313
14.8454 -9.7672 -1.5547 0.9311
17.4237 -8.6590 -1.7022 0.9248
18.3749 -6.5102 -1.7055 0.9247
19.0613 -4.2584 -1.7088 0.9246
19.4714 -1.9355 -1.7119 0.9244
19.5908 0.4238 -1.7144 0.9243
17.6989 2.5364 -1.5643 0.9307
17.2913 4.6564 -1.5667 0.9306
13.2595 5.3539 -1.2511 0.9442
10.4469 5.7680 -1.0440 0.9532
7.9958 5.7711 -0.8627 0.9612
6.3390 5.8570 -0.7551 0.9659
1.3216 1.5558 -0.1786 0.9918
3.9822 6.0323 -0.6324 0.9714
4.3590 8.7371 -0.8542 0.9616
3.4833 9.7833 -0.9086 0.9592
2.3163 10.2934 -0.9231 0.9585
1.8073 17.8993 -1.5740 0.9303
-0.3609 17.9728 -1.5727 0.9304
-1.3966 9.8540 -0.8707 0.9608
-5.0927 19.0288 -1.7234 0.9240
-7.3371 18.2523 -1.7211 0.9241
-9.4673 17.2100 -1.7185 0.9242
-8.1788 11.3688 -1.2253 0.9453
-8.3129 9.0250 -1.0735 0.9519
-14.8721 12.6733 -1.7095 0.9245
-16.2592 10.7697 -1.7063 0.9247
-17.4044 8.7168 -1.7030 0.9248
-18.2922 6.5449 -1.6997 0.9250
-18.9114 4.2865 -1.6965 0.9251
-19.2546 1.9743 -1.6934 0.9252
-19.3183 -0.3580 -1.6904 0.9254
-19.1031 -2.6773 -1.6876 0.9255
-18.6134 -4.9506 -1.6851 0.9256
-17.8574 -7.1463 -1.6828 0.9257
-16.8468 -9.2335 -1.6808 0.9258
-15.5965 -11.1838 -1.6791 0.9258
-9.5920 -8.8077 -1.1393 0.9491
-9.6294 -11.2648 -1.2965 0.9422
-10.6042 -15.9555 -1.6761 0.9260
-8.6043 -17.1139 -1.6759 0.9260
-6.0794 12.5722 -1.7147 0.9453
-7.5406 11.7354 -1.7127 0.9453
-8.8881 10.7289 -1.7107 0.9454
-9.9033 9.3797 -1.6748 0.9465
-11.1662 8.2711 -1.7062 0.9455
-12.0645 6.8570 -1.7039 0.9456
-12.7849 5.3470 -1.7015 0.9457
-13.3176 3.7634 -1.6992 0.9458
-13.6557 2.1295 -1.6970 0.9458
-13.7951 0.4690 -1.6948 0.9459
-13.7345 -1.1941 -1.6928 0.9460
-13.4756 -2.8362 -1.6908 0.9460
-13.0227 -4.4337 -1.6891 0.9461
-12.3828 -5.9642 -1.6876 0.9461
-11.5654 -7.4061 -1.6863 0.9462
-10.5826 -8.7393 -1.6852 0.9462
-9.4486 -9.9451 -1.6844 0.9462
-8.1795 -11.0068 -1.6838 0.9462
-6.7934 -11.9096 -1.6835 0.9462
-5.3098 -12.6409 -1.6835 0.9462
-3.7495 -13.1903 -1.6837 0.9462
-2.1345 -13.5500 -1.6842 0.9462
-0.4876 -13.7149 -1.6850 0.9462
0.9712 -11.3747 -1.4017 0.9550
2.3980 -11.4819 -1.4402 0.9538
3.5855 -10.5852 -1.3722 0.9560
5.4498 -11.3598 -1.5470 0.9505
6.7856 -10.6327 -1.5487 0.9504
8.0262 -9.7499 -1.5506 0.9504
10.0030 -9.5331 -1.6966 0.9458
11.0928 -8.2701 -1.6989 0.9458
12.0243 -6.8835 -1.7012 0.9457
12.7832 -5.3929 -1.7035 0.9456
13.3577 -3.8195 -1.7059 0.9455
13.7388 -2.1861 -1.7081 0.9455
13.9201 -0.5165 -1.7103 0.9454
12.6556 1.0608 -1.5594 0.9501
12.4500 2.5800 -1.5611 0.9501
12.0613 4.0647 -1.5628 0.9500
11.4947 5.4926 -1.5642 0.9500
9.0745 5.7714 -1.3205 0.9576
7.0355 5.7734 -1.1175 0.9640
5.5234 5.7777 -0.9814 0.9683
3.8326 5.1241 -0.7857 0.9745
3.4241 5.9599 -0.8440 0.9727
4.0431 9.5425 -1.2725 0.9591
3.2988 11.4694 -1.4654 0.9530
1.8720 11.6484 -1.4486 0.9536
0.4928 12.7501 -1.5667 0.9499
-0.8373 10.1786 -1.2540 0.9597
-2.5662 12.4807 -1.5645 0.9499
-4.0468 12.0700 -1.5631 0.9500
-6.0017 12.6104 -1.7148 0.9453
-7.4682 11.7826 -1.7129 0.9453
-8.8220 10.7845 -1.7108 0.9454
-9.8485 9.4444 -1.6754 0.9465
-11.1155 8.3408 -1.7063 0.9455
-12.0226 6.9321 -1.7040 0.9456
-12.7524 5.4265 -1.7017 0.9457
-13.2949 3.8462 -1.6994 0.9458
-13.6432 2.2143 -1.6971 0.9458
-13.7928 0.5545 -1.6949 0.9459
-13.7425 -1.1091 -1.6929 0.9460
-13.4937 -2.7527 -1.6909 0.9460
-13.0505 -4.3531 -1.6892 0.9461
-12.4200 -5.8875 -1.6876 0.9461
-11.6115 -7.3345 -1.6863 0.9462
-10.6369 -8.6737 -1.6852 0.9462
-9.5103 -9.8866 -1.6844 0.9462
-8.2477 -10.9561 -1.6838 0.9462
-6.8671 -11.8674 -1.6835 0.9462
-5.3880 -12.6077 -1.6835 0.9462
-3.8312 -13.1666 -1.6837 0.9462
-2.2185 -13.5363 -1.6842 0.9462
-0.5726 -13.7112 -1.6850 0.9462
0.9002 -11.3745 -1.4010 0.9551
2.3932 -11.8249 -1.4814 0.9525
3.5122 -10.5842 -1.3693 0.9561
5.3790 -11.3928 -1.5469 0.9505
6.7192 -10.6739 -1.5486 0.9504
7.9651 -9.7989 -1.5505 0.9504
9.9430 -9.5943 -1.6965 0.9458
11.0405 -8.3382 -1.6988 0.9458
11.9805 -6.9574 -1.7011 0.9457
12.7486 -5.4716 -1.7034 0.9456
13.3329 -3.9020 -1.7057 0.9456
13.7241 -2.2711 -1.7080 0.9455
13.9157 -0.6027 -1.7102 0.9454
12.6612 0.9823 -1.5593 0.9501
12.4651 2.5027 -1.5611 0.9501
12.0857 3.9896 -1.5627 0.9500
11.5281 5.4210 -1.5642 0.9500
9.1994 5.7711 -1.3334 0.9572
7.1248 5.7731 -1.1259 0.9637
5.5922 5.7775 -0.9873 0.9681
3.8818 5.1234 -0.7892 0.9744
3.4239 5.8749 -0.8349 0.9730
4.0892 9.4871 -1.2685 0.9592
3.2981 11.2050 -1.4342 0.9540
1.9570 11.7134 -1.4582 0.9533
0.5719 12.7472 -1.5667 0.9499
-0.9667 12.7154 -1.5658 0.9499
-2.4889 12.4969 -1.5646 0.9499
-3.9721 12.0954 -1.5632 0.9500
-5.9237 12.6480 -1.7149 0.9453
-7.3954 11.8294 -1.7130 0.9453
-8.7555 10.8397 -1.7109 0.9454
-9.8485 9.5623 -1.6855 0.9462
-11.0643 8.4101 -1.7064 0.9455
-11.9802 7.0070 -1.7041 0.9456
-12.7194 5.5059 -1.7018 0.9457
-13.2718 3.9288 -1.6995 0.9457
-13.6301 2.2990 -1.6972 0.9458
-13.7900 0.6401 -1.6950 0.9459
-13.7500 -1.0239 -1.6930 0.9459
-13.5112 -2.6692 -1.6910 0.9460
-13.0779 -4.2723 -1.6893 0.9461
-12.4568 -5.8107 -1.6877 0.9461
-11.6572 -7.2626 -1.6864 0.9462
-10.6908 -8.6079 -1.6853 0.9462
-9.5716 -9.8276 -1.6844 0.9462
-8.3156 -10.9049 -1.6838 0.9462
-6.9406 -11.8246 -1.6835 0.9462
-5.4660 -12.5740 -1.6835 0.9462
-3.9127 -13.1424 -1.6837 0.9462
-2.3023 -13.5220 -1.6842 0.9462
-0.6575 -13.7070 -1.6849 0.9462
0.8293 -11.3753 -1.4004 0.9551
2.4179 -12.3398 -1.5439 0.9506
3.4392 -10.5832 -1.3663 0.9561
5.3079 -11.4253 -1.5468 0.9505
6.2236 -10.0240 -1.4487 0.9536
7.9037 -9.8474 -1.5504 0.9504
9.8395 -9.6129 -1.6890 0.9461
10.9879 -8.4059 -1.6987 0.9458
11.9363 -7.0311 -1.7010 0.9457
12.7135 -5.5502 -1.7033 0.9456
13.3075 -3.9843 -1.7056 0.9456
13.7088 -2.3560 -1.7079 0.9455
13.9108 -0.6889 -1.7101 0.9454
12.6662 0.9037 -1.5592 0.9501
12.4796 2.4252 -1.5610 0.9501
12.1095 3.9144 -1.5626 0.9500
11.5609 5.3492 -1.5641 0.9500
9.3268 5.7707 -1.3467 0.9568
7.2155 5.7729 -1.1346 0.9634
5.6618 5.7773 -0.9932 0.9679
3.9315 5.1227 -0.7929 0.9743
3.4507 5.8373 -0.8326 0.9730
4.1350 9.4321 -1.2645 0.9593
3.2974 10.9516 -1.4043 0.9550
1.8168 10.4745 -1.3053 0.9581
0.6509 12.7437 -1.5668 0.9499
-0.8879 12.7216 -1.5658 0.9499
-2.0086 10.4220 -1.3032 0.9581
-3.8972 12.1204 -1.5632 0.9500
-5.8455 12.6852 -1.7150 0.9453
-7.3224 11.8758 -1.7131 0.9453
-8.6887 10.8945 -1.7110 0.9454
-9.9247 9.7565 -1.7088 0.9455
-11.0127 8.4791 -1.7066 0.9455
-11.9374 7.0817 -1.7042 0.9456
-12.6859 5.5850 -1.7019 0.9457
-13.2481 4.0112 -1.6996 0.9457
-13.6165 2.3836 -1.6973 0.9458
-13.7867 0.7256 -1.6951 0.9459
-13.7569 -0.9387 -1.6931 0.9459
-13.5283 -2.5855 -1.6911 0.9460
-13.1048 -4.1914 -1.6894 0.9461
-12.4932 -5.7336 -1.6878 0.9461
-11.7024 -7.1905 -1.6864 0.9462
-10.7443 -8.5417 -1.6853 0.9462
-9.6325 -9.7683 -1.6845 0.9462
-8.3832 -10.8533 -1.6839 0.9462
-7.0138 -11.7814 -1.6835 0.9462
-5.5439 -12.5398 -1.6835 0.9462
-3.9940 -13.1178 -1.6837 0.9462
-2.3860 -13.5072 -1.6842 0.9462
-0.7425 -13.7023 -1.6849 0.9462
0.7655 -11.4811 -1.4128 0.9547
2.3412 -12.3540 -1.5439 0.9506
3.3664 -10.5822 -1.3635 0.9562
4.5805 -10.0216 -1.3529 0.9566
6.1585 -10.0578 -1.4481 0.9536
7.8420 -9.8956 -1.5503 0.9504
9.7201 -9.6148 -1.6787 0.9464
10.9348 -8.4732 -1.6985 0.9458
11.8917 -7.1044 -1.7008 0.9457
12.6780 -5.6285 -1.7032 0.9456
13.2816 -4.0664 -1.7055 0.9456
13.6930 -2.4408 -1.7078 0.9455
13.9054 -0.7751 -1.7100 0.9454
13.1276 0.8549 -1.6153 0.9484
12.4937 2.3476 -1.5609 0.9501
12.1330 3.8391 -1.5625 0.9500
11.5933 5.2772 -1.5640 0.9500
9.4567 5.7703 -1.3602 0.9563
7.3075 5.7726 -1.1434 0.9632
5.7322 5.7771 -0.9993 0.9677
1.2833 1.6509 -0.2567 0.9916
3.4996 5.8372 -0.8357 0.9729
4.1806 9.3774 -1.2606 0.9595
3.3209 10.7870 -1.3858 0.9555
1.8727 10.4126 -1.2990 0.9583
0.7299 12.7398 -1.5668 0.9499
-0.8090 12.7273 -1.5659 0.9499
-2.3340 12.5279 -1.5647 0.9499
-3.8222 12.1449 -1.5633 0.9500
-5.7671 12.7219 -1.7151 0.9453
-7.2490 11.9216 -1.7132 0.9453
-8.6215 10.9488 -1.7111 0.9454
-9.8647 9.8185 -1.7089 0.9455
-10.9607 8.5478 -1.7067 0.9455
-11.8941 7.1560 -1.7044 0.9456
-12.6520 5.6639 -1.7020 0.9457
-13.2239 4.0936 -1.6997 0.9457
-13.6024 2.4681 -1.6974 0.9458
-13.7828 0.8111 -1.6952 0.9459
-13.7633 -0.8534 -1.6932 0.9459
-13.5448 -2.5017 -1.6912 0.9460
-13.1312 -4.1102 -1.6895 0.9461
-12.5290 -5.6563 -1.6879 0.9461
-11.7472 -7.1181 -1.6865 0.9461
-10.7974 -8.4752 -1.6854 0.9462
-9.6932 -9.7087 -1.6845 0.9462
-8.4504 -10.8013 -1.6839 0.9462
-7.0868 -11.7378 -1.6835 0.9462
-5.6215 -12.5052 -1.6835 0.9462
-4.0752 -13.0927 -1.6836 0.9462
-2.4697 -13.4919 -1.6841 0.9462
-0.8274 -13.6971 -1.6849 0.9462
0.7582 -12.5413 -1.5427 0.9506
2.2645 -12.3678 -1.5438 0.9506
3.2940 -10.5812 -1.3607 0.9563
4.5169 -10.0468 -1.3525 0.9566
6.5183 -10.7952 -1.5484 0.9504
7.7800 -9.9434 -1.5502 0.9504
9.6022 -9.6166 -1.6686 0.9467
10.8813 -8.5403 -1.6984 0.9458
11.8466 -7.1775 -1.7007 0.9457
12.6420 -5.7065 -1.7031 0.9456
13.2552 -4.1484 -1.7054 0.9456
13.6767 -2.5254 -1.7077 0.9455
13.8994 -0.8612 -1.7099 0.9454
13.8599 0.8163 -1.7047 0.9456
12.5073 2.2700 -1.5608 0.9501
12.1559 3.7636 -1.5625 0.9500
11.6253 5.2050 -1.5639 0.9500
9.5893 5.7699 -1.3741 0.9559
7.4011 5.7723 -1.1524 0.9629
5.8035 5.7769 -1.0054 0.9675
1.2810 1.6270 -0.2543 0.9917
3.5489 5.8371 -0.8388 0.9728
4.2258 9.3230 -1.2568 0.9596
3.3943 10.7868 -1.3885 0.9555
1.9532 10.4867 -1.3097 0.9579
0.8090 12.7354 -1.5669 0.9499
-0.7301 12.7325 -1.5659 0.9499
-2.2563 12.5426 -1.5648 0.9499
-3.7470 12.1690 -1.5634 0.9500
-5.6884 12.7581 -1.7152 0.9453
-7.1754 11.9670 -1.7133 0.9453
-8.5540 11.0028 -1.7112 0.9454
-9.8043 9.8801 -1.7090 0.9454
-10.9083 8.6162 -1.7068 0.9455
-11.8504 7.2301 -1.7045 0.9456
-12.6175 5.7426 -1.7021 0.9457
-13.1992 4.1758 -1.6998 0.9457
-13.5877 2.5526 -1.6975 0.9458
-13.7784 0.8967 -1.6954 0.9459
-13.7692 -0.7681 -1.6933 0.9459
-13.5608 -2.4178 -1.6913 0.9460
-13.1571 -4.0289 -1.6895 0.9461
-12.5644 -5.5787 -1.6880 0.9461
-11.7916 -7.0454 -1.6866 0.9461
-10.8501 -8.4083 -1.6854 0.9462
-9.7534 -9.6486 -1.6845 0.9462
-8.5174 -10.7488 -1.6839 0.9462
-7.1595 -11.6937 -1.6835 0.9462
-5.6989 -12.4701 -1.6834 0.9462
-4.1563 -13.0670 -1.6836 0.9462
-2.5532 -13.4761 -1.6841 0.9462
-0.9123 -13.6913 -1.6848 0.9462
0.6804 -12.5453 -1.5426 0.9506
2.1877 -12.3811 -1.5438 0.9506
3.2219 -10.5801 -1.3580 0.9564
5.0937 -11.5201 -1.5466 0.9505
6.4509 -10.8347 -1.5483 0.9505
7.7177 -9.9909 -1.5501 0.9504
9.4856 -9.6184 -1.6587 0.9470
10.8274 -8.6070 -1.6983 0.9458
11.8010 -7.2503 -1.7006 0.9457
12.6054 -5.7844 -1.7029 0.9456
13.2283 -4.2302 -1.7053 0.9456
13.6598 -2.6100 -1.7076 0.9455
13.8928 -0.9473 -1.7098 0.9454
13.8757 0.7309 -1.7061 0.9455
12.5204 2.1923 -1.5607 0.9501
12.1783 3.6880 -1.5624 0.9500
11.6568 5.1326 -1.5639 0.9500
9.7246 5.7696 -1.3884 0.9555
7.4961 5.7721 -1.1616 0.9626
5.8757 5.7767 -1.0117 0.9673
1.2843 1.6105 -0.2529 0.9917
3.5986 5.8369 -0.8419 0.9727
4.2708 9.2690 -1.2531 0.9597
3.3901 10.5450 -1.3600 0.9563
2.3715 12.3085 -1.5391 0.9507
0.8879 12.7305 -1.5669 0.9499
-0.6511 12.7372 -1.5660 0.9499
-2.1786 12.5569 -1.5648 0.9499
-3.6716 12.1926 -1.5635 0.9500
-5.6095 12.7938 -1.7152 0.9453
-7.1015 12.0120 -1.7134 0.9453
-8.4862 11.0563 -1.7113 0.9454
-9.7435 9.9414 -1.7092 0.9454
-10.8554 8.6843 -1.7069 0.9455
-11.8061 7.3040 -1.7046 0.9456
-12.5825 5.8212 -1.7023 0.9457
-13.1739 4.2578 -1.6999 0.9457
-13.5726 2.6369 -1.6977 0.9458
-13.7735 0.9821 -1.6955 0.9459
-13.7745 -0.6828 -1.6934 0.9459
-13.5763 -2.3339 -1.6914 0.9460
-13.1825 -3.9475 -1.6896 0.9461
-12.5993 -5.5010 -1.6880 0.9461
-11.8355 -6.9725 -1.6866 0.9461
-10.9023 -8.3412 -1.6855 0.9462
-9.8133 -9.5881 -1.6846 0.9462
-8.5840 -10.6960 -1.6839 0.9462
-7.2319 -11.6492 -1.6836 0.9462
-5.7761 -12.4345 -1.6834 0.9462
-4.2372 -13.0409 -1.6836 0.9462
-2.6367 -13.4597 -1.6841 0.9462
-0.9971 -13.6851 -1.6848 0.9462
0.6585 -13.7134 -1.6857 0.9462
2.1108 -12.3939 -1.5437 0.9506
2.9896 -10.0404 -1.2863 0.9587
5.0219 -11.5509 -1.5465 0.9505
6.3832 -10.8739 -1.5482 0.9505
7.6552 -10.0379 -1.5500 0.9504
9.3705 -9.6202 -1.6489 0.9473
10.7732 -8.6733 -1.6982 0.9458
11.7550 -7.3228 -1.7005 0.9457
12.5685 -5.8620 -1.7028 0.9456
13.2009 -4.3118 -1.7051 0.9456
13.6425 -2.6945 -1.7074 0.9455
13.8858 -1.0334 -1.7097 0.9454
13.8910 0.6454 -1.7074 0.9455
12.5331 2.1145 -1.5606 0.9501
12.2003 3.6122 -1.5623 0.9500
11.6879 5.0599 -1.5638 0.9500
9.8628 5.7692 -1.4030 0.9550
7.5926 5.7718 -1.1710 0.9623
5.9488 5.7765 -1.0181 0.9671
1.2880 1.5948 -0.2517 0.9918
3.6486 5.8368 -0.8452 0.9726
4.3155 9.2153 -1.2494 0.9598
3.3895 10.3231 -1.3341 0.9572
2.4509 12.3092 -1.5410 0.9507
0.9668 12.7250 -1.5669 0.9499
-0.5722 12.7414 -1.5660 0.9499
-1.6721 10.0054 -1.2455 0.9599
-3.5961 12.2157 -1.5635 0.9500
-5.5304 12.8290 -1.7153 0.9453
-7.0273 12.0565 -1.7135 0.9453
-8.4180 11.1094 -1.7114 0.9454
-9.6823 10.0022 -1.7093 0.9454
-10.8021 8.7520 -1.7070 0.9455
-11.7614 7.3776 -1.7047 0.9456
-12.5471 5.8995 -1.7024 0.9457
-13.1482 4.3397 -1.7001 0.9457
-13.5569 2.7212 -1.6978 0.9458
-13.7680 1.0675 -1.6956 0.9459
-13.7793 -0.5974 -1.6935 0.9459
-13.5913 -2.2498 -1.6915 0.9460
-13.2074 -3.8659 -1.6897 0.9461
-12.6338 -5.4230 -1.6881 0.9461
-11.8789 -6.8992 -1.6867 0.9461
-10.9541 -8.2737 -1.6855 0.9462
-9.8728 -9.5274 -1.6846 0.9462
-8.6502 -10.6427 -1.6840 0.9462
-7.3040 -11.6042 -1.6836 0.9462
-5.8531 -12.3984 -1.6834 0.9462
-4.3179 -13.0142 -1.6836 0.9462
-2.7200 -13.4429 -1.6840 0.9462
-1.0819 -13.6783 -1.6847 0.9462
0.5734 -13.7168 -1.6857 0.9462
2.0338 -12.4063 -1.5436 0.9506
2.9159 -10.0193 -1.2812 0.9588
4.9500 -11.5812 -1.5464 0.9505
6.3153 -10.9126 -1.5481 0.9505
7.5923 -10.0845 -1.5499 0.9504
9.2566 -9.6220 -1.6394 0.9476
10.7184 -8.7394 -1.6981 0.9458
11.7086 -7.3950 -1.7004 0.9457
12.5310 -5.9394 -1.7027 0.9456
13.1730 -4.3932 -1.7050 0.9456
13.6246 -2.7788 -1.7073 0.9455
13.8782 -1.1194 -1.7096 0.9454
13.9057 0.5597 -1.7088 0.9455
12.5452 2.0366 -1.5605 0.9501
12.2219 3.5363 -1.5622 0.9500
11.7185 4.9872 -1.5637 0.9500
10.0039 5.7688 -1.4179 0.9545
7.6908 5.7715 -1.1806 0.9620
6.0229 5.7762 -1.0246 0.9669
1.2954 1.5837 -0.2512 0.9918
3.6991 5.8366 -0.8485 0.9725
4.3422 9.1247 -1.2408 0.9601
3.3890 10.1095 -1.3092 0.9579
2.5305 12.3099 -1.5431 0.9506
1.0457 12.7191 -1.5670 0.9499
-0.4932 12.7452 -1.5661 0.9499
-1.5915 9.9000 -1.2312 0.9604
-3.5205 12.2383 -1.5636 0.9500
-5.4510 12.8638 -1.7154 0.9453
-6.9528 12.1006 -1.7136 0.9453
-8.3495 11.1621 -1.7115 0.9454
-9.6207 10.0628 -1.7094 0.9454
-10.7483 8.8194 -1.7071 0.9455
-11.7163 7.4508 -1.7048 0.9456
-12.5111 5.9776 -1.7025 0.9457
-13.1220 4.4215 -1.7002 0.9457
-13.5407 2.8054 -1.6979 0.9458
-13.7620 1.1529 -1.6957 0.9459
-13.7836 -0.5120 -1.6936 0.9459
-13.6058 -2.1656 -1.6916 0.9460
-13.2318 -3.7842 -1.6898 0.9460
-12.6677 -5.3449 -1.6882 0.9461
-11.9220 -6.8257 -1.6868 0.9461
-10.9792 -8.1862 -1.6816 0.9463
-9.9318 -9.4662 -1.6847 0.9462
-8.7162 -10.5891 -1.6840 0.9462
-7.3759 -11.5588 -1.6836 0.9462
-5.9298 -12.3619 -1.6834 0.9462
-4.3985 -12.9871 -1.6836 0.9462
-2.8033 -13.4255 -1.6840 0.9462
-1.1666 -13.6710 -1.6847 0.9462
0.4883 -13.7196 -1.6856 0.9462
1.9568 -12.4181 -1.5436 0.9506
2.8582 -10.0529 -1.2833 0.9588
4.8778 -11.6110 -1.5464 0.9505
6.2472 -10.9509 -1.5480 0.9505
7.5292 -10.1307 -1.5498 0.9504
9.1441 -9.6237 -1.6300 0.9479
10.6633 -8.8050 -1.6980 0.9458
11.6617 -7.4670 -1.7002 0.9457
12.4931 -6.0166 -1.7026 0.9457
13.1446 -4.4745 -1.7049 0.9456
13.6062 -2.8629 -1.7072 0.9455
13.8701 -1.2053 -1.7095 0.9454
13.9200 0.4739 -1.7101 0.9454
12.5568 1.9587 -1.5604 0.9501
12.2429 3.4603 -1.5621 0.9500
11.7486 4.9142 -1.5637 0.9500
10.1481 5.7683 -1.4333 0.9540
7.7905 5.7712 -1.1904 0.9617
6.0979 5.7760 -1.0313 0.9667
1.3027 1.5727 -0.2507 0.9918
3.7499 5.8365 -0.8518 0.9724
4.3418 8.9799 -1.2247 0.9606
3.3884 9.9037 -1.2852 0.9587
2.6103 12.3106 -1.5452 0.9505
1.1246 12.7127 -1.5670 0.9499
-0.4142 12.7484 -1.5661 0.9499
-1.5243 9.8719 -1.2265 0.9605
-3.4448 12.2605 -1.5637 0.9500
-5.3714 12.8980 -1.7155 0.9452
-6.8781 12.1442 -1.7137 0.9453
-8.2806 11.2143 -1.7116 0.9454
-9.5588 10.1229 -1.7095 0.9454
-10.6942 8.8865 -1.7073 0.9455
-11.6707 7.5239 -1.7050 0.9456
-12.4747 6.0555 -1.7026 0.9456
-13.0952 4.5031 -1.7003 0.9457
-13.5239 2.8895 -1.6980 0.9458
-13.7555 1.2383 -1.6958 0.9459
-13.7873 -0.4266 -1.6937 0.9459
-13.6197 -2.0813 -1.6917 0.9460
-13.2557 -3.7023 -1.6899 0.9460
-12.7012 -5.2665 -1.6883 0.9461
-11.9645 -6.7519 -1.6868 0.9461
-11.0044 -8.0994 -1.6777 0.9464
-9.5923 -9.0297 -1.6175 0.9483
-8.7818 -10.5350 -1.6840 0.9462
-7.4475 -11.5129 -1.6836 0.9462
-6.0064 -12.3249 -1.6834 0.9462
-4.4789 -12.9595 -1.6836 0.9462
-2.8864 -13.4077 -1.6840 0.9462
-1.2514 -13.6631 -1.6846 0.9462
0.4033 -13.7220 -1.6856 0.9462
1.8797 -12.4295 -1.5435 0.9506
2.9362 -10.5762 -1.3477 0.9567
4.8055 -11.6405 -1.5463 0.9505
6.1788 -10.9888 -1.5479 0.9505
7.4658 -10.1766 -1.5497 0.9504
9.0328 -9.6254 -1.6208 0.9482
10.6078 -8.8704 -1.6978 0.9458
11.6144 -7.5386 -1.7001 0.9457
12.4546 -6.0935 -1.7025 0.9457
13.1157 -4.5556 -1.7048 0.9456
13.5872 -2.9470 -1.7071 0.9455
13.8614 -1.2911 -1.7093 0.9454
13.9336 0.3879 -1.7115 0.9454
12.5680 1.8807 -1.5603 0.9501
12.2635 3.3841 -1.5620 0.9500
11.7783 4.8410 -1.5636 0.9500
10.2954 5.7679 -1.4490 0.9536
7.8920 5.7709 -1.2004 0.9614
6.1739 5.7758 -1.0381 0.9665
1.3110 1.5628 -0.2505 0.9918
3.8011 5.8364 -0.8552 0.9723
4.3415 8.8389 -1.2091 0.9611
3.4151 9.7831 -1.2723 0.9591
2.6903 12.3114 -1.5473 0.9505
1.2034 12.7058 -1.5671 0.9499
-0.3352 12.7512 -1.5662 0.9499
-1.4575 9.8439 -1.2219 0.9607
-3.3689 12.2822 -1.5638 0.9500
-5.2917 12.9317 -1.7156 0.9452
-6.8030 12.1873 -1.7138 0.9453
-8.2115 11.2662 -1.7118 0.9454
-9.4965 10.1826 -1.7096 0.9454
-10.6396 8.9532 -1.7074 0.9455
-11.6246 7.5966 -1.7051 0.9456
-12.4378 6.1331 -1.7027 0.9456
-13.0679 4.5845 -1.7004 0.9457
-13.5067 2.9735 -1.6981 0.9458
-13.7485 1.3237 -1.6959 0.9459
-13.7906 -0.3411 -1.6938 0.9459
-13.6332 -1.9970 -1.6918 0.9460
-13.2791 -3.6202 -1.6900 0.9460
-12.7342 -5.1879 -1.6883 0.9461
-12.0066 -6.6779 -1.6869 0.9461
-11.1072 -8.0693 -1.6857 0.9462
-9.5923 -8.9182 -1.6082 0.9486
-8.8471 -10.4806 -1.6840 0.9462
-7.5187 -11.4667 -1.6836 0.9462
-6.0827 -12.2874 -1.6834 0.9462
-4.5591 -12.9313 -1.6836 0.9462
-2.9694 -13.3893 -1.6839 0.9462
-1.3360 -13.6548 -1.6846 0.9462
0.3182 -13.7237 -1.6855 0.9462
1.8025 -12.4405 -1.5434 0.9506
2.8654 -10.5752 -1.3453 0.9568
4.7330 -11.6694 -1.5462 0.9505
6.1102 -11.0263 -1.5478 0.9505
7.4021 -10.2221 -1.5496 0.9504
8.9228 -9.6270 -1.6117 0.9485
10.5518 -8.9354 -1.6977 0.9458
11.5666 -7.6099 -1.7000 0.9457
12.4157 -6.1702 -1.7023 0.9457
13.0863 -4.6365 -1.7047 0.9456
13.5677 -3.0311 -1.7070 0.9455
13.8523 -1.3770 -1.7092 0.9454
13.9348 0.3014 -1.7114 0.9454
12.5787 1.8026 -1.5602 0.9501
12.2836 3.3079 -1.5620 0.9500
11.8075 4.7676 -1.5635 0.9500
10.4460 5.7675 -1.4651 0.9530
7.9952 5.7706 -1.2107 0.9610
6.2509 5.7756 -1.0450 0.9663
1.3215 1.5557 -0.2506 0.9918
3.8528 5.8362 -0.8587 0.9722
3.3801 6.7751 -0.9297 0.9699
3.4832 9.7829 -1.2751 0.9590
2.6466 11.7610 -1.4802 0.9526
1.2822 12.6984 -1.5671 0.9499
-0.2561 12.7534 -1.5662 0.9499
-1.3929 9.8280 -1.2188 0.9608
-3.2928 12.3034 -1.5638 0.9500
-5.2117 12.9649 -1.7157 0.9452
-6.7277 12.2299 -1.7139 0.9453
-8.1419 11.3176 -1.7119 0.9454
-9.4338 10.2420 -1.7097 0.9454
-10.5846 9.0197 -1.7075 0.9455
-11.5781 7.6691 -1.7052 0.9456
-12.4004 6.2106 -1.7029 0.9456
-13.0402 4.6657 -1.7005 0.9457
-13.4889 3.0574 -1.6982 0.9458
-13.7409 1.4090 -1.6960 0.9459
-13.7933 -0.2556 -1.6939 0.9459
-13.6461 -1.9125 -1.6919 0.9460
-13.3020 -3.5379 -1.6901 0.9460
-12.7667 -5.1091 -1.6884 0.9461
-12.0483 -6.6035 -1.6870 0.9461
-11.1574 -8.0006 -1.6858 0.9462
-9.5923 -8.8079 -1.5990 0.9489
-8.9121 -10.4257 -1.6841 0.9462
-7.5898 -11.4199 -1.6836 0.9462
-6.1587 -12.2495 -1.6834 0.9462
-4.2848 8.8609 -1.5589 0.9609
-5.8379 9.0854 -1.7104 0.9572
-6.8830 8.3085 -1.7088 0.9572
-7.8256 7.4119 -1.7071 0.9573
-8.6522 6.4090 -1.7054 0.9573
-9.3512 5.3148 -1.7036 0.9574
-9.9126 4.1457 -1.7018 0.9574
-10.3288 2.9188 -1.7000 0.9575
-10.5942 1.6521 -1.6982 0.9575
-10.7054 0.3640 -1.6965 0.9575
-10.6613 -0.9269 -1.6949 0.9576
-10.4629 -2.2021 -1.6935 0.9576
-10.1135 -3.4432 -1.6921 0.9577
-9.6185 -4.6328 -1.6909 0.9577
-8.9852 -5.7538 -1.6899 0.9577
-8.2229 -6.7905 -1.6891 0.9577
-7.3425 -7.7284 -1.6884 0.9577
-6.3568 -8.5541 -1.6880 0.9578
-5.2797 -9.2560 -1.6877 0.9578
-4.1267 -9.8244 -1.6877 0.9578
-2.9140 -10.2510 -1.6879 0.9578
-1.6588 -10.5299 -1.6883 0.9577
-0.3788 -10.6569 -1.6889 0.9577
0.8534 -9.9944 -1.5887 0.9602
2.0139 -9.6428 -1.5602 0.9609
3.2610 -9.6271 -1.6099 0.9597
4.6116 -9.6127 -1.6886 0.9577
5.7563 -9.0198 -1.6947 0.9576
6.8068 -8.2687 -1.6963 0.9576
7.7607 -7.3961 -1.6980 0.9575
8.6037 -6.4144 -1.6997 0.9575
9.3233 -5.3373 -1.7015 0.9574
9.9086 -4.1802 -1.7033 0.9574
10.3508 -2.9597 -1.7051 0.9573
10.6429 -1.6935 -1.7069 0.9573
10.7802 -0.4000 -1.7086 0.9573
10.1848 0.8537 -1.6188 0.9595
9.6366 1.9970 -1.5587 0.9609
9.3335 3.1454 -1.5600 0.9609
8.8932 4.2495 -1.5611 0.9609
8.3219 5.2928 -1.5621 0.9608
7.0350 5.7730 -1.4414 0.9638
5.5230 5.7773 -1.2659 0.9681
3.8052 5.0875 -1.0062 0.9746
3.4240 5.9596 -1.0886 0.9725
3.8527 9.0930 -1.5641 0.9608
2.7294 9.4897 -1.5639 0.9608
1.5664 9.7469 -1.5636 0.9608
0.3812 9.8610 -1.5630 0.9608
-0.7904 9.6082 -1.5269 0.9617
-1.9540 9.5033 -1.5367 0.9615
-3.1314 9.3398 -1.5602 0.9609
-4.2300 8.8877 -1.5590 0.9609
-5.7817 9.1219 -1.7105 0.9572
-6.8317 8.3514 -1.7089 0.9572
-7.7799 7.4606 -1.7072 0.9573
-8.6128 6.4628 -1.7055 0.9573
-9.3185 5.3730 -1.7037 0.9574
-9.8872 4.2073 -1.7019 0.9574
-10.3110 2.9829 -1.7001 0.9575
-10.5843 1.7178 -1.6983 0.9575
-10.7034 0.4303 -1.6966 0.9575
-10.6673 -0.8609 -1.6950 0.9576
-10.4768 -2.1373 -1.6935 0.9576
-10.1351 -3.3806 -1.6922 0.9577
-9.6474 -4.5732 -1.6910 0.9577
-9.0210 -5.6982 -1.6899 0.9577
-8.2650 -6.7396 -1.6891 0.9577
-7.3904 -7.6828 -1.6884 0.9577
-6.4098 -8.5146 -1.6880 0.9578
-5.3371 -9.2232 -1.6877 0.9578
-4.1875 -9.7986 -1.6877 0.9578
-2.9774 -10.2327 -1.6879 0.9578
-1.7240 -10.5192 -1.6883 0.9577
-0.4449 -10.6541 -1.6889 0.9577
0.7945 -10.0384 -1.5949 0.9600
1.9527 -9.6484 -1.5591 0.9609
3.1948 -9.6277 -1.6066 0.9598
4.5389 -9.6135 -1.6838 0.9579
5.7000 -9.0549 -1.6946 0.9576
6.7551 -8.3103 -1.6962 0.9576
7.7143 -7.4437 -1.6979 0.9575
8.5633 -6.4673 -1.6996 0.9575
9.2895 -5.3947 -1.7014 0.9574
9.8820 -4.2413 -1.7032 0.9574
10.3317 -3.0237 -1.7050 0.9573
10.6317 -1.7593 -1.7068 0.9573
10.7770 -0.4668 -1.7085 0.9573
10.7175 0.8315 -1.7026 0.9574
9.6483 1.9371 -1.5586 0.9609
9.3525 3.0874 -1.5599 0.9609
8.9191 4.1941 -1.5610 0.9609
8.3543 5.2409 -1.5620 0.9608
7.1243 5.7727 -1.4523 0.9635
5.5918 5.7771 -1.2734 0.9680
1.2664 1.6714 -0.3321 0.9915
3.4238 5.8746 -1.0769 0.9728
3.9090 9.0689 -1.5641 0.9608
2.7882 9.4726 -1.5640 0.9608
1.6268 9.7371 -1.5636 0.9608
0.4423 9.8586 -1.5630 0.9608
-0.7477 9.8354 -1.5623 0.9608
-1.8927 9.5033 -1.5347 0.9615
-3.0736 9.3594 -1.5603 0.9609
-4.1750 8.9142 -1.5590 0.9609
-5.7253 9.1580 -1.7106 0.9572
-6.7801 8.3941 -1.7090 0.9572
-7.7339 7.5091 -1.7073 0.9573
-8.5730 6.5164 -1.7056 0.9573
-9.2855 5.4310 -1.7038 0.9574
-9.8615 4.2687 -1.7020 0.9574
-10.2929 3.0470 -1.7002 0.9575
-10.5740 1.7835 -1.6984 0.9575
-10.7011 0.4967 -1.6967 0.9575
-10.6729 -0.7948 -1.6951 0.9576
-10.4903 -2.0724 -1.6936 0.9576
-10.1562 -3.3178 -1.6922 0.9577
-9.6759 -4.5134 -1.6910 0.9577
-9.0564 -5.6423 -1.6900 0.9577
-8.3068 -6.6884 -1.6891 0.9577
-7.4380 -7.6370 -1.6885 0.9577
-6.4625 -8.4748 -1.6880 0.9578
-5.3942 -9.1899 -1.6878 0.9578
-4.2482 -9.7724 -1.6877 0.9578
-3.0408 -10.2139 -1.6879 0.9578
-1.7891 -10.5082 -1.6883 0.9577
-0.5109 -10.6509 -1.6889 0.9577
0.7355 -10.0881 -1.6020 0.9599
1.8916 -9.6541 -1.5581 0.9609
3.1288 -9.6282 -1.6035 0.9598
4.4666 -9.6144 -1.6791 0.9580
5.6434 -9.0896 -1.6946 0.9576
6.7031 -8.3516 -1.6961 0.9576
7.6676 -7.4910 -1.6978 0.9575
8.5226 -6.5199 -1.6995 0.9575
9.2554 -5.4519 -1.7013 0.9574
9.8550 -4.3022 -1.7031 0.9574
10.3122 -3.0875 -1.7049 0.9573
10.6200 -1.8251 -1.7067 0.9573
10.7733 -0.5335 -1.7084 0.9573
10.7291 0.7655 -1.7036 0.9574
9.6597 1.8772 -1.5586 0.9609
9.3710 3.0292 -1.5598 0.9609
8.9446 4.1386 -1.5610 0.9609
8.3864 5.1889 -1.5620 0.9608
7.2149 5.7724 -1.4635 0.9633
5.6614 5.7769 -1.2811 0.9678
1.2663 1.6500 -0.3294 0.9916
3.4505 5.8370 -1.0739 0.9729
3.9651 9.0446 -1.5641 0.9608
2.8469 9.4552 -1.5640 0.9608
1.6872 9.7270 -1.5636 0.9608
0.5034 9.8559 -1.5631 0.9608
-0.6868 9.8401 -1.5623 0.9608
-1.8315 9.5033 -1.5329 0.9616
-3.0156 9.3786 -1.5603 0.9609
-4.1198 8.9402 -1.5591 0.9609
-5.6687 9.1937 -1.7107 0.9572
-6.7282 8.4363 -1.7091 0.9572
-7.6876 7.5573 -1.7074 0.9573
-8.5329 6.5698 -1.7057 0.9573
-9.2522 5.4887 -1.7039 0.9574
-9.8354 4.3300 -1.7021 0.9574
-10.2744 3.1109 -1.7003 0.9575
-10.5633 1.8491 -1.6985 0.9575
-10.6984 0.5631 -1.6968 0.9575
-10.6782 -0.7286 -1.6952 0.9576
-10.5034 -2.0074 -1.6937 0.9576
-10.1770 -3.2549 -1.6923 0.9577
-9.7040 -4.4535 -1.6911 0.9577
-9.0914 -5.5862 -1.6900 0.9577
-8.3483 -6.6369 -1.6892 0.9577
-7.4853 -7.5909 -1.6885 0.9577
-6.5150 -8.4346 -1.6880 0.9578
-5.4510 -9.1564 -1.6878 0.9578
-4.3087 -9.7459 -1.6877 0.9578
-3.1040 -10.1948 -1.6879 0.9578
-1.8542 -10.4967 -1.6883 0.9578
-0.5769 -10.6473 -1.6888 0.9577
0.6764 -10.1445 -1.6103 0.9597
1.8306 -9.6598 -1.5572 0.9610
3.0632 -9.6288 -1.6004 0.9599
4.3948 -9.6153 -1.6744 0.9581
5.5867 -9.1240 -1.6945 0.9576
6.6509 -8.3926 -1.6960 0.9576
7.6206 -7.5380 -1.6977 0.9575
8.4815 -6.5722 -1.6994 0.9575
9.2209 -5.5088 -1.7012 0.9574
9.8276 -4.3630 -1.7030 0.9574
10.2924 -3.1512 -1.7048 0.9573
10.6079 -1.8908 -1.7066 0.9573
10.7693 -0.6003 -1.7083 0.9573
10.7402 0.6994 -1.7047 0.9573
9.6708 1.8172 -1.5585 0.9609
9.3893 2.9709 -1.5598 0.9609
8.9698 4.0830 -1.5609 0.9609
8.4182 5.1366 -1.5619 0.9608
7.3070 5.7722 -1.4748 0.9630
5.7318 5.7767 -1.2889 0.9676
1.2663 1.6289 -0.3268 0.9917
3.4994 5.8369 -1.0779 0.9728
4.0211 9.0198 -1.5641 0.9608
2.9055 9.4375 -1.5640 0.9608
1.7475 9.7165 -1.5636 0.9608
0.5645 9.8528 -1.5631 0.9608
-0.6258 9.8445 -1.5624 0.9608
-1.7705 9.5033 -1.5311 0.9616
-2.9576 9.3975 -1.5604 0.9609
-4.0645 8.9660 -1.5592 0.9609
-5.6118 9.2291 -1.7108 0.9572
-6.6762 8.4783 -1.7092 0.9572
-7.6410 7.6052 -1.7075 0.9573
-8.4925 6.6229 -1.7057 0.9573
-9.2185 5.5463 -1.7040 0.9574
-9.8089 4.3912 -1.7021 0.9574
-10.2554 3.1747 -1.7003 0.9575
-10.5522 1.9146 -1.6986 0.9575
-10.6952 0.6294 -1.6969 0.9575
-10.6830 -0.6624 -1.6953 0.9576
-10.5161 -1.9423 -1.6938 0.9576
-10.1974 -3.1919 -1.6924 0.9576
-9.7318 -4.3934 -1.6912 0.9577
-9.1262 -5.5299 -1.6901 0.9577
-8.3895 -6.5852 -1.6892 0.9577
-7.5324 -7.5445 -1.6885 0.9577
-6.5672 -8.3942 -1.6880 0.9578
-5.5077 -9.1224 -1.6878 0.9578
-4.3690 -9.7189 -1.6877 0.9578
-3.1672 -10.1752 -1.6879 0.9578
-1.9192 -10.4849 -1.6882 0.9578
-0.6429 -10.6433 -1.6888 0.9577
0.6171 -10.2085 -1.6198 0.9594
1.7699 -9.6665 -1.5565 0.9610
2.9977 -9.6294 -1.5973 0.9600
4.3233 -9.6161 -1.6699 0.9582
5.5298 -9.1581 -1.6944 0.9576
6.5984 -8.4333 -1.6960 0.9576
7.5733 -7.5847 -1.6976 0.9575
8.4402 -6.6243 -1.6994 0.9575
9.1861 -5.5656 -1.7011 0.9574
9.7998 -4.4236 -1.7029 0.9574
10.2721 -3.2147 -1.7047 0.9573
10.5955 -1.9565 -1.7065 0.9573
10.7648 -0.6670 -1.7082 0.9573
10.7509 0.6332 -1.7057 0.9573
9.6814 1.7571 -1.5584 0.9609
9.4071 2.9126 -1.5597 0.9609
8.9946 4.0271 -1.5609 0.9609
8.4496 5.0842 -1.5619 0.9609
7.4005 5.7719 -1.4865 0.9627
5.8031 5.7765 -1.2969 0.9674
1.2662 1.6082 -0.3242 0.9917
3.5487 5.8368 -1.0819 0.9727
4.0770 8.9947 -1.5641 0.9608
2.9640 9.4194 -1.5640 0.9608
1.8077 9.7056 -1.5637 0.9608
0.6256 9.8493 -1.5631 0.9608
-0.5647 9.8484 -1.5624 0.9608
-1.7096 9.5033 -1.5293 0.9617
-2.8993 9.4160 -1.5604 0.9609
-4.0089 8.9914 -1.5592 0.9609
-5.5548 9.2642 -1.7108 0.9572
-6.6238 8.5200 -1.7093 0.9572
-7.5941 7.6528 -1.7076 0.9573
-8.4517 6.6758 -1.7058 0.9573
-9.1844 5.6036 -1.7040 0.9574
-9.7820 4.4521 -1.7022 0.9574
-10.2361 3.2384 -1.7004 0.9575
-10.5406 1.9801 -1.6987 0.9575
-10.6916 0.6957 -1.6970 0.9575
-10.6874 -0.5962 -1.6953 0.9576
-10.5284 -1.8771 -1.6938 0.9576
-10.2174 -3.1287 -1.6924 0.9576
-9.7592 -4.3332 -1.6912 0.9577
-9.1606 -5.4734 -1.6901 0.9577
-8.4304 -6.5332 -1.6893 0.9577
-7.5792 -7.4977 -1.6886 0.9577
-6.6192 -8.3534 -1.6881 0.9578
-5.5642 -9.0882 -1.6878 0.9578
-4.4292 -9.6917 -1.6877 0.9578
-3.2302 -10.1553 -1.6879 0.9578
-1.9842 -10.4726 -1.6882 0.9578
-0.7089 -10.6389 -1.6888 0.9577
0.5576 -10.2814 -1.6308 0.9592
1.7098 -9.6763 -1.5563 0.9610
2.9325 -9.6299 -1.5944 0.9601
4.2522 -9.6169 -1.6654 0.9583
5.4727 -9.1918 -1.6943 0.9576
6.5457 -8.4736 -1.6959 0.9576
7.5258 -7.6312 -1.6975 0.9575
8.3985 -6.6762 -1.6993 0.9575
9.1509 -5.6222 -1.7010 0.9574
9.7717 -4.4841 -1.7028 0.9574
10.2514 -3.2782 -1.7047 0.9573
10.5826 -2.0220 -1.7064 0.9573
10.7599 -0.7337 -1.7082 0.9573
10.7612 0.5669 -1.7068 0.9573
9.6917 1.6970 -1.5584 0.9609
9.4246 2.8541 -1.5597 0.9609
9.0191 3.9711 -1.5608 0.9609
8.4807 5.0316 -1.5618 0.9609
7.4955 5.7716 -1.4983 0.9624
5.8753 5.7763 -1.3050 0.9672
1.2662 1.5877 -0.3216 0.9918
3.5984 5.8366 -1.0860 0.9726
4.1327 8.9693 -1.5641 0.9608
3.0223 9.4009 -1.5640 0.9608
1.8679 9.6944 -1.5637 0.9608
0.6867 9.8454 -1.5632 0.9608
-0.5036 9.8520 -1.5624 0.9608
-1.6488 9.5032 -1.5277 0.9617
-2.8410 9.4341 -1.5605 0.9609
-3.9533 9.0164 -1.5593 0.9609
-5.4975 9.2988 -1.7109 0.9572
-6.5711 8.5613 -1.7093 0.9572
-7.5469 7.7002 -1.7077 0.9573
-8.4106 6.7285 -1.7059 0.9573
-9.1500 5.6608 -1.7041 0.9574
-9.7548 4.5129 -1.7023 0.9574
-10.2164 3.3020 -1.7005 0.9574
-10.5287 2.0456 -1.6988 0.9575
-10.6876 0.7620 -1.6971 0.9575
-10.6914 -0.5300 -1.6954 0.9576
-10.5403 -1.8119 -1.6939 0.9576
-10.2370 -3.0655 -1.6925 0.9576
-9.7862 -4.2728 -1.6913 0.9577
-9.1946 -5.4167 -1.6902 0.9577
-8.4709 -6.4809 -1.6893 0.9577
-7.6257 -7.4507 -1.6886 0.9577
-6.6710 -8.3123 -1.6881 0.9578
-5.6205 -9.0535 -1.6878 0.9578
-4.4892 -9.6640 -1.6877 0.9578
-3.2930 -10.1350 -1.6878 0.9578
-2.0490 -10.4600 -1.6882 0.9578
-0.7748 -10.6341 -1.6887 0.9577
0.4979 -10.3699 -1.6443 0.9588
1.6496 -9.6860 -1.5562 0.9610
2.8676 -9.6304 -1.5915 0.9601
4.1815 -9.6177 -1.6610 0.9584
5.4154 -9.2251 -1.6943 0.9576
6.4927 -8.5136 -1.6958 0.9576
7.4780 -7.6773 -1.6974 0.9575
8.3565 -6.7277 -1.6992 0.9575
9.1154 -5.6784 -1.7010 0.9574
9.7432 -4.5443 -1.7028 0.9574
10.2303 -3.3415 -1.7046 0.9574
10.5693 -2.0875 -1.7063 0.9573
10.7546 -0.8004 -1.7081 0.9573
10.7711 0.5004 -1.7078 0.9573
9.7016 1.6368 -1.5583 0.9609
9.4418 2.7955 -1.5596 0.9609
9.0432 3.9150 -1.5608 0.9609
8.5115 4.9787 -1.5618 0.9609
7.5921 5.7714 -1.5105 0.9621
5.9485 5.7761 -1.3132 0.9670
1.2786 1.5832 -0.3223 0.9918
3.6484 5.8365 -1.0902 0.9725
4.1882 8.9435 -1.5641 0.9608
3.0805 9.3820 -1.5640 0.9608
1.9280 9.6827 -1.5637 0.9608
0.7477 9.8412 -1.5632 0.9608
-0.4426 9.8552 -1.5625 0.9608
-1.5882 9.5032 -1.5260 0.9617
-2.7825 9.4519 -1.5606 0.9609
-3.8975 9.0412 -1.5594 0.9609
-5.4400 9.3332 -1.7110 0.9572
-6.5183 8.6023 -1.7094 0.9572
-7.4994 7.7472 -1.7078 0.9573
-8.3692 6.7808 -1.7060 0.9573
-9.1152 5.7177 -1.7042 0.9574
-9.7271 4.5736 -1.7024 0.9574
-10.1963 3.3654 -1.7006 0.9574
-10.5164 2.1109 -1.6989 0.9575
-10.6833 0.8283 -1.6971 0.9575
-10.6950 -0.4637 -1.6955 0.9576
-10.5518 -1.7466 -1.6940 0.9576
-10.2562 -3.0021 -1.6926 0.9576
-9.8128 -4.2122 -1.6913 0.9577
-9.2282 -5.3597 -1.6902 0.9577
-8.5111 -6.4285 -1.6893 0.9577
-7.6719 -7.4034 -1.6886 0.9577
-6.7225 -8.2709 -1.6881 0.9578
-5.6765 -9.0186 -1.6878 0.9578
-4.5490 -9.6360 -1.6877 0.9578
-3.3558 -10.1144 -1.6878 0.9578
-2.1138 -10.4469 -1.6882 0.9578
-0.8407 -10.6289 -1.6887 0.9577
0.4378 -10.4724 -1.6601 0.9584
1.5895 -9.6958 -1.5562 0.9610
2.8028 -9.6309 -1.5887 0.9602
4.1111 -9.6185 -1.6567 0.9585
5.3578 -9.2581 -1.6942 0.9576
6.4395 -8.5533 -1.6957 0.9576
7.4298 -7.7231 -1.6974 0.9575
8.3142 -6.7790 -1.6991 0.9575
9.0795 -5.7345 -1.7009 0.9574
9.7143 -4.6043 -1.7027 0.9574
10.2088 -3.4047 -1.7045 0.9574
10.5556 -2.1528 -1.7063 0.9573
10.7489 -0.8670 -1.7080 0.9573
10.7807 0.4339 -1.7089 0.9572
9.7111 1.5765 -1.5582 0.9609
9.4585 2.7368 -1.5595 0.9609
9.0670 3.8587 -1.5607 0.9609
8.5419 4.9257 -1.5617 0.9609
7.6902 5.7711 -1.5228 0.9618
6.0225 5.7759 -1.3216 0.9668
1.2949 1.5831 -0.3239 0.9918
3.6989 5.8363 -1.0944 0.9724
4.2436 8.9174 -1.5641 0.9608
3.1387 9.3628 -1.5640 0.9608
1.9880 9.6707 -1.5637 0.9608
0.8087 9.8366 -1.5632 0.9608
-0.3815 9.8580 -1.5625 0.9608
-1.5277 9.5032 -1.5245 0.9618
-2.7240 9.4693 -1.5606 0.9609
-3.8415 9.0655 -1.5594 0.9609
-5.3822 9.3671 -1.7111 0.9572
-6.4651 8.6429 -1.7095 0.9572
-7.4516 7.7939 -1.7078 0.9573
-8.3274 6.8329 -1.7061 0.9573
-9.0801 5.7744 -1.7043 0.9574
-9.6991 4.6340 -1.7025 0.9574
-10.1758 3.4287 -1.7007 0.9574
-10.5036 2.1762 -1.6989 0.9575
-10.6785 0.8946 -1.6972 0.9575
-10.6982 -0.3974 -1.6956 0.9576
-10.5629 -1.6813 -1.6941 0.9576
-10.2751 -2.9386 -1.6927 0.9576
-9.8391 -4.1514 -1.6914 0.9577
-9.2616 -5.3026 -1.6903 0.9577
-8.5510 -6.3758 -1.6894 0.9577
-7.7177 -7.3559 -1.6887 0.9577
-6.7737 -8.2291 -1.6881 0.9578
-5.7324 -8.9833 -1.6878 0.9578
-4.6086 -9.6076 -1.6877 0.9578
-3.4184 -10.0933 -1.6878 0.9578
-2.1785 -10.4335 -1.6881 0.9578
-0.9066 -10.6232 -1.6887 0.9577
0.3773 -10.5993 -1.6798 0.9580
1.5299 -9.7092 -1.5568 0.9610
2.7383 -9.6314 -1.5859 0.9603
4.0411 -9.6193 -1.6525 0.9586
5.3001 -9.2907 -1.6941 0.9576
6.3861 -8.5926 -1.6956 0.9576
7.3814 -7.7686 -1.6973 0.9575
8.2716 -6.8301 -1.6990 0.9575
9.0433 -5.7904 -1.7008 0.9574
9.6850 -4.6642 -1.7026 0.9574
10.1870 -3.4677 -1.7044 0.9574
10.5414 -2.2181 -1.7062 0.9573
10.7428 -0.9336 -1.7079 0.9573
10.7875 0.3672 -1.7096 0.9572
9.7203 1.5162 -1.5582 0.9609
9.4749 2.6780 -1.5595 0.9609
9.0904 3.8023 -1.5606 0.9609
8.5720 4.8725 -1.5617 0.9609
7.7900 5.7708 -1.5355 0.9615
6.0975 5.7757 -1.3302 0.9666
1.3026 1.5726 -0.3234 0.9918
3.7497 5.8362 -1.0987 0.9723
4.2988 8.8909 -1.5641 0.9608
3.1967 9.3433 -1.5640 0.9608
2.0479 9.6583 -1.5637 0.9608
0.8697 9.8316 -1.5632 0.9608
-0.3204 9.8604 -1.5626 0.9608
-1.4673 9.5032 -1.5230 0.9618
-2.6654 9.4864 -1.5607 0.9609
-3.7854 9.0895 -1.5595 0.9609
-5.3243 9.4008 -1.7112 0.9572
-6.4117 8.6833 -1.7096 0.9572
-7.4035 7.8404 -1.7079 0.9573
-8.2853 6.8848 -1.7062 0.9573
-9.0446 5.8309 -1.7044 0.9574
-9.6707 4.6943 -1.7026 0.9574
-10.1549 3.4920 -1.7008 0.9574
-10.4905 2.2414 -1.6990 0.9575
-10.6732 0.9608 -1.6973 0.9575
-10.7009 -0.3311 -1.6957 0.9576
-10.5736 -1.6158 -1.6941 0.9576
-10.2935 -2.8749 -1.6927 0.9576
-9.8650 -4.0905 -1.6915 0.9577
-9.2946 -5.2452 -1.6903 0.9577
-8.5906 -6.3228 -1.6894 0.9577
-7.7633 -7.3081 -1.6887 0.9577
-6.8246 -8.1871 -1.6881 0.9578
-5.7880 -8.9476 -1.6878 0.9578
-4.6681 -9.5788 -1.6877 0.9578
-3.4809 -10.0718 -1.6878 0.9578
-2.2431 -10.4196 -1.6881 0.9578
-0.9724 -10.6172 -1.6886 0.9577
0.3133 -10.6616 -1.6894 0.9577
1.4705 -9.7236 -1.5576 0.9610
2.6740 -9.6319 -1.5832 0.9603
3.9714 -9.6200 -1.6484 0.9587
5.2422 -9.3229 -1.6940 0.9576
6.3324 -8.6316 -1.6956 0.9576
7.3328 -7.8138 -1.6972 0.9575
8.2286 -6.8809 -1.6989 0.9575
9.0067 -5.8460 -1.7007 0.9574
9.6554 -4.7239 -1.7025 0.9574
10.1647 -3.5306 -1.7043 0.9574
10.5269 -2.2833 -1.7061 0.9573
10.7362 -1.0000 -1.7078 0.9573
10.7890 0.3003 -1.7095 0.9572
9.7290 1.4559 -1.5581 0.9609
9.4910 2.6191 -1.5594 0.9609
9.1134 3.7457 -1.5606 0.9609
8.6018 4.8191 -1.5616 0.9609
7.8914 5.7705 -1.5484 0.9612
6.1735 5.7754 -1.3390 0.9663
1.3109 1.5627 -0.3231 0.9918
3.8009 5.8360 -1.1031 0.9722
4.3412 8.8385 -1.5596 0.9609
3.2546 9.3233 -1.5641 0.9608
2.1078 9.6456 -1.5638 0.9608
0.9306 9.8262 -1.5633 0.9608
-0.2593 9.8625 -1.5626 0.9608
-1.4071 9.5032 -1.5216 0.9618
-2.6066 9.5031 -1.5607 0.9609
-3.7292 9.1132 -1.5596 0.9609
-5.2661 9.4340 -1.7112 0.9572
-6.3581 8.7233 -1.7097 0.9572
-7.3551 7.8865 -1.7080 0.9573
-8.2429 6.9364 -1.7063 0.9573
-9.0088 5.8872 -1.7045 0.9574
-9.6419 4.7545 -1.7027 0.9574
-10.1336 3.5550 -1.7009 0.9574
-10.4770 2.3065 -1.6991 0.9575
-10.6676 1.0270 -1.6974 0.9575
-10.7033 -0.2648 -1.6958 0.9576
-10.5839 -1.5503 -1.6942 0.9576
-10.3115 -2.8112 -1.6928 0.9576
-9.8905 -4.0294 -1.6915 0.9577
-9.3272 -5.1876 -1.6904 0.9577
-8.6299 -6.2696 -1.6895 0.9577
-7.8086 -7.2599 -1.6887 0.9577
-6.8753 -8.1448 -1.6882 0.9578
-5.8434 -8.9116 -1.6878 0.9578
-4.7274 -9.5497 -1.6877 0.9578
-3.5432 -10.0500 -1.6878 0.9578
-2.3077 -10.4054 -1.6881 0.9578
-1.0382 -10.6108 -1.6886 0.9577
0.2472 -10.6631 -1.6893 0.9577
1.4110 -9.7380 -1.5585 0.9609
2.6100 -9.6324 -1.5806 0.9604
3.9021 -9.6208 -1.6443 0.9588
5.1840 -9.3549 -1.6940 0.9576
6.2784 -8.6703 -1.6955 0.9576
7.2838 -7.8587 -1.6971 0.9575
8.1854 -6.9314 -1.6988 0.9575
8.9698 -5.9014 -1.7006 0.9574
9.6253 -4.7835 -1.7024 0.9574
10.1421 -3.5934 -1.7042 0.9574
10.5120 -2.3484 -1.7060 0.9573
10.7293 -1.0665 -1.7077 0.9573
10.7902 0.2334 -1.7094 0.9572
9.7375 1.3954 -1.5580 0.9609
9.5066 2.5601 -1.5593 0.9609
9.1362 3.6890 -1.5605 0.9609
8.6312 4.7655 -1.5616 0.9609
7.9946 5.7702 -1.5616 0.9609
6.2505 5.7752 -1.3479 0.9661
1.3215 1.5556 -0.3233 0.9918
3.8526 5.8359 -1.1076 0.9721
3.3800 6.7748 -1.1991 0.9698
3.3123 9.3030 -1.5641 0.9608
2.1676 9.6325 -1.5638 0.9608
0.9916 9.8204 -1.5633 0.9608
-0.1981 9.8641 -1.5626 0.9608
-1.3469 9.5032 -1.5202 0.9619
-2.5477 9.5194 -1.5608 0.9609
-3.6727 9.1365 -1.5596 0.9609
-5.2078 9.4669 -1.7113 0.9572
-6.3041 8.7630 -1.7098 0.9572
-7.3065 7.9324 -1.7081 0.9573
-8.2002 6.9878 -1.7064 0.9573
-8.9726 5.9433 -1.7046 0.9573
-9.6128 4.8145 -1.7028 0.9574
-10.1119 3.6180 -1.7010 0.9574
-10.4630 2.3716 -1.6992 0.9575
-10.6616 1.0932 -1.6975 0.9575
-10.7053 -0.1984 -1.6958 0.9576
-10.5938 -1.4847 -1.6943 0.9576
-10.3292 -2.7472 -1.6929 0.9576
-9.9157 -3.9681 -1.6916 0.9577
-9.3595 -5.1298 -1.6905 0.9577
-8.6688 -6.2161 -1.6895 0.9577
-7.8537 -7.2115 -1.6888 0.9577
-6.9258 -8.1021 -1.6882 0.9578
-5.8986 -8.8753 -1.6878 0.9578
-4.7865 -9.5202 -1.6877 0.9578
-3.4878 7.2127 -1.5573 0.9679
-4.7527 7.3966 -1.7090 0.9648
-5.6045 6.7653 -1.7077 0.9648
-6.3733 6.0363 -1.7063 0.9649
-7.0478 5.2205 -1.7049 0.9649
-7.6186 4.3301 -1.7034 0.9649
-8.0776 3.3783 -1.7019 0.9650
-8.4184 2.3790 -1.7005 0.9650
-8.6364 1.3468 -1.6990 0.9650
-8.7286 0.2968 -1.6977 0.9650
-8.6942 -0.7559 -1.6964 0.9651
-8.5338 -1.7961 -1.6951 0.9651
-8.2501 -2.8088 -1.6940 0.9651
-7.8473 -3.7796 -1.6931 0.9651
-7.3314 -4.6948 -1.6922 0.9651
-6.7100 -5.5412 -1.6915 0.9652
-5.9920 -6.3069 -1.6910 0.9652
-5.1879 -6.9811 -1.6907 0.9652
-4.3090 -7.5542 -1.6905 0.9652
-3.3679 -8.0180 -1.6905 0.9652
-2.3781 -8.3660 -1.6906 0.9652
-1.3537 -8.5932 -1.6910 0.9652
-0.3091 -8.6963 -1.6915 0.9652
0.7406 -8.6736 -1.6921 0.9651
1.7805 -8.5254 -1.6929 0.9651
2.7958 -8.2537 -1.6939 0.9651
3.7717 -7.8620 -1.6950 0.9651
4.6943 -7.3558 -1.6962 0.9651
5.5501 -6.7421 -1.6975 0.9650
6.3267 -6.0295 -1.6988 0.9650
7.0126 -5.2282 -1.7002 0.9650
7.5976 -4.3494 -1.7017 0.9650
8.0731 -3.4058 -1.7032 0.9649
8.4317 -2.4110 -1.7046 0.9649
8.6680 -1.3792 -1.7061 0.9649
8.7781 -0.3257 -1.7075 0.9648
8.7303 0.7318 -1.7030 0.9649
7.8442 1.6256 -1.5572 0.9679
7.5964 2.5600 -1.5582 0.9679
7.2371 3.4581 -1.5591 0.9678
6.7714 4.3066 -1.5599 0.9678
6.2061 5.0928 -1.5605 0.9678
5.5227 5.7769 -1.5535 0.9680
3.7779 5.0510 -1.2261 0.9746
3.4238 5.9594 -1.3360 0.9724
3.1341 7.3970 -1.5616 0.9678
2.2203 7.7198 -1.5614 0.9678
1.2743 7.9294 -1.5611 0.9678
0.3101 8.0228 -1.5606 0.9678
-0.6580 7.9986 -1.5600 0.9678
-1.6156 7.8573 -1.5593 0.9678
-2.5485 7.6013 -1.5584 0.9679
-3.4431 7.2344 -1.5574 0.9679
-4.7046 7.4225 -1.7082 0.9648
-5.5627 6.8002 -1.7077 0.9648
-6.3360 6.0760 -1.7064 0.9649
-7.0156 5.2644 -1.7049 0.9649
-7.5920 4.3775 -1.7035 0.9649
-8.0569 3.4284 -1.7020 0.9649
-8.4039 2.4312 -1.7005 0.9650
-8.6282 1.4003 -1.6991 0.9650
-8.7270 0.3509 -1.6977 0.9650
-8.6990 -0.7020 -1.6964 0.9651
-8.5451 -1.7432 -1.6952 0.9651
-8.2676 -2.7577 -1.6941 0.9651
-7.8708 -3.7310 -1.6931 0.9651
-7.3605 -4.6493 -1.6923 0.9651
-6.7444 -5.4996 -1.6916 0.9652
-6.0311 -6.2697 -1.6910 0.9652
-5.2311 -6.9489 -1.6907 0.9652
-4.3557 -7.5273 -1.6905 0.9652
-3.4176 -7.9970 -1.6905 0.9652
-2.4300 -8.3511 -1.6906 0.9652
-1.4069 -8.5846 -1.6909 0.9652
-0.3631 -8.6940 -1.6914 0.9652
0.6868 -8.6779 -1.6921 0.9652
1.7276 -8.5361 -1.6929 0.9651
2.7445 -8.2706 -1.6938 0.9651
3.7228 -7.8849 -1.6949 0.9651
4.6484 -7.3844 -1.6961 0.9651
5.5080 -6.7761 -1.6974 0.9650
6.2889 -6.0684 -1.6988 0.9650
6.9797 -5.2713 -1.7002 0.9650
7.5702 -4.3962 -1.7016 0.9650
8.0514 -3.4556 -1.7031 0.9649
8.4162 -2.4631 -1.7046 0.9649
8.6589 -1.4329 -1.7060 0.9649
8.7756 -0.3801 -1.7074 0.9648
8.7390 0.6780 -1.7038 0.9649
7.8539 1.5769 -1.5571 0.9679
7.6119 2.5128 -1.5581 0.9679
7.2582 3.4131 -1.5591 0.9678
6.7978 4.2645 -1.5598 0.9678
6.2374 5.0541 -1.5605 0.9678
5.5852 5.7703 -1.5610 0.9678
1.2663 1.6714 -0.4076 0.9915
3.4236 5.8744 -1.3216 0.9727
3.1799 7.3774 -1.5616 0.9678
2.2682 7.7060 -1.5614 0.9678
1.3235 7.9215 -1.5611 0.9678
0.3599 8.0208 -1.5607 0.9678
-0.6084 8.0027 -1.5601 0.9678
-1.5669 7.8674 -1.5593 0.9678
-2.5014 7.6172 -1.5584 0.9679
-3.3983 7.2559 -1.5574 0.9679
-4.6562 7.4479 -1.7073 0.9648
-5.5207 6.8348 -1.7078 0.9648
-6.2985 6.1154 -1.7064 0.9649
-6.9832 5.3080 -1.7050 0.9649
-7.5650 4.4247 -1.7035 0.9649
-8.0359 3.4785 -1.7021 0.9649
-8.3890 2.4834 -1.7006 0.9650
-8.6197 1.4539 -1.6992 0.9650
-8.7250 0.4050 -1.6978 0.9650
-8.7036 -0.6481 -1.6965 0.9651
-8.5560 -1.6903 -1.6953 0.9651
-8.2848 -2.7065 -1.6942 0.9651
-7.8940 -3.6823 -1.6932 0.9651
-7.3894 -4.6037 -1.6923 0.9651
-6.7784 -5.4578 -1.6916 0.9652
-6.0699 -6.2323 -1.6911 0.9652
-5.2741 -6.9163 -1.6907 0.9652
-4.4023 -7.5002 -1.6905 0.9652
-3.4671 -7.9756 -1.6904 0.9652
-2.4817 -8.3358 -1.6906 0.9652
-1.4601 -8.5756 -1.6909 0.9652
-0.4169 -8.6915 -1.6914 0.9652
0.6330 -8.6818 -1.6920 0.9652
1.6746 -8.5464 -1.6928 0.9651
2.6930 -8.2872 -1.6938 0.9651
3.6737 -7.9076 -1.6949 0.9651
4.6024 -7.4128 -1.6960 0.9651
5.4657 -6.8098 -1.6973 0.9650
6.2509 -6.1070 -1.6987 0.9650
6.9466 -5.3142 -1.7001 0.9650
7.5424 -4.4429 -1.7016 0.9650
8.0295 -3.5053 -1.7030 0.9649
8.4004 -2.5151 -1.7045 0.9649
8.6495 -1.4865 -1.7059 0.9649
8.7727 -0.4345 -1.7073 0.9648
8.7474 0.6241 -1.7047 0.9649
7.8632 1.5281 -1.5570 0.9679
7.6271 2.4655 -1.5581 0.9679
7.2790 3.3680 -1.5590 0.9678
6.8239 4.2221 -1.5598 0.9678
6.2685 5.0152 -1.5605 0.9678
5.6208 5.7355 -1.5610 0.9678
1.2663 1.6499 -0.4043 0.9916
3.4503 5.8367 -1.3180 0.9727
3.2256 7.3576 -1.5616 0.9678
2.3159 7.6918 -1.5614 0.9678
1.3726 7.9132 -1.5611 0.9678
0.4096 8.0186 -1.5607 0.9678
-0.5588 8.0065 -1.5601 0.9678
-1.5181 7.8772 -1.5593 0.9678
-2.4542 7.6328 -1.5585 0.9679
-3.3534 7.2771 -1.5575 0.9679
-4.6077 7.4729 -1.7065 0.9649
-5.4784 6.8692 -1.7079 0.9648
-6.2607 6.1546 -1.7065 0.9649
-6.9504 5.3514 -1.7051 0.9649
-7.5378 4.4717 -1.7036 0.9649
-8.0145 3.5284 -1.7021 0.9649
-8.3738 2.5354 -1.7007 0.9650
-8.6109 1.5074 -1.6992 0.9650
-8.7227 0.4591 -1.6979 0.9650
-8.7077 -0.5942 -1.6965 0.9651
-8.5666 -1.6372 -1.6953 0.9651
-8.3017 -2.6552 -1.6942 0.9651
-7.9169 -3.6334 -1.6932 0.9651
-7.4180 -4.5579 -1.6923 0.9651
-6.8123 -5.4158 -1.6916 0.9652
-6.1085 -6.1947 -1.6911 0.9652
-5.3169 -6.8836 -1.6907 0.9652
-4.4488 -7.4728 -1.6905 0.9652
-3.5165 -7.9539 -1.6904 0.9652
-2.5333 -8.3202 -1.6906 0.9652
-1.5132 -8.5662 -1.6909 0.9652
-0.4708 -8.6886 -1.6914 0.9652
0.5791 -8.6853 -1.6920 0.9652
1.6215 -8.5564 -1.6928 0.9651
2.6415 -8.3035 -1.6937 0.9651
3.6245 -7.9299 -1.6948 0.9651
4.5562 -7.4409 -1.6960 0.9651
5.4231 -6.8433 -1.6973 0.9650
6.2127 -6.1454 -1.6986 0.9650
6.9132 -5.3570 -1.7000 0.9650
7.5144 -4.4893 -1.7015 0.9650
8.0073 -3.5549 -1.7029 0.9649
8.3843 -2.5670 -1.7044 0.9649
8.6397 -1.5400 -1.7059 0.9649
8.7695 -0.4888 -1.7073 0.9648
8.7555 0.5702 -1.7055 0.9649
7.8723 1.4792 -1.5570 0.9679
7.6419 2.4181 -1.5580 0.9679
7.2995 3.3227 -1.5590 0.9678
6.8498 4.1796 -1.5598 0.9678
6.2994 4.9762 -1.5604 0.9678
5.6562 5.7005 -1.5610 0.9678
1.2662 1.6289 -0.4010 0.9916
3.4993 5.8366 -1.3228 0.9727
3.2711 7.3374 -1.5616 0.9678
2.3636 7.6773 -1.5614 0.9678
1.4216 7.9046 -1.5612 0.9678
0.4593 8.0160 -1.5607 0.9678
-0.5092 8.0100 -1.5601 0.9678
-1.4693 7.8867 -1.5594 0.9678
-2.4070 7.6481 -1.5585 0.9679
-3.3083 7.2980 -1.5575 0.9679
-4.5591 7.4978 -1.7057 0.9649
-5.4359 6.9033 -1.7080 0.9648
-6.2227 6.1935 -1.7066 0.9649
-6.9174 5.3946 -1.7052 0.9649
-7.5103 4.5185 -1.7037 0.9649
-7.9928 3.5781 -1.7022 0.9649
-8.3583 2.5874 -1.7008 0.9650
-8.6018 1.5608 -1.6993 0.9650
-8.7200 0.5132 -1.6979 0.9650
-8.7116 -0.5402 -1.6966 0.9651
-8.5769 -1.5841 -1.6954 0.9651
-8.3182 -2.6037 -1.6943 0.9651
-7.9395 -3.5843 -1.6933 0.9651
-7.4463 -4.5120 -1.6924 0.9651
-6.8458 -5.3735 -1.6917 0.9652
-6.1469 -6.1568 -1.6911 0.9652
-5.3595 -6.8506 -1.6907 0.9652
-4.4950 -7.4451 -1.6905 0.9652
-3.5657 -7.9320 -1.6904 0.9652
-2.5848 -8.3042 -1.6906 0.9652
-1.5663 -8.5566 -1.6909 0.9652
-0.5246 -8.6853 -1.6913 0.9652
0.5253 -8.6886 -1.6920 0.9652
1.5684 -8.5661 -1.6928 0.9651
2.5899 -8.3194 -1.6937 0.9651
3.5751 -7.9520 -1.6947 0.9651
4.5098 -7.4688 -1.6959 0.9651
5.3804 -6.8765 -1.6972 0.9650
6.1742 -6.1835 -1.6985 0.9650
6.8796 -5.3995 -1.6999 0.9650
7.4861 -4.5357 -1.7014 0.9650
7.9847 -3.6043 -1.7029 0.9649
8.3679 -2.6188 -1.7043 0.9649
8.6297 -1.5935 -1.7058 0.9649
8.7659 -0.5432 -1.7072 0.9648
8.7633 0.5161 -1.7064 0.9649
7.8810 1.4304 -1.5569 0.9679
7.6565 2.3706 -1.5580 0.9679
7.3198 3.2773 -1.5589 0.9678
6.8754 4.1370 -1.5597 0.9678
6.3300 4.9370 -1.5604 0.9678
5.6913 5.6652 -1.5609 0.9678
1.2662 1.6081 -0.3978 0.9917
3.5485 5.8365 -1.3277 0.9726
3.3166 7.3170 -1.5616 0.9678
2.4112 7.6626 -1.5615 0.9678
1.4706 7.8958 -1.5612 0.9678
0.5090 8.0132 -1.5607 0.9678
-0.4595 8.0132 -1.5602 0.9678
-1.4204 7.8958 -1.5594 0.9678
-2.3596 7.6631 -1.5586 0.9679
-3.2631 7.3186 -1.5576 0.9679
-4.1178 6.8676 -1.5565 0.9679
-5.3932 6.9372 -1.7080 0.9648
-6.1844 6.2322 -1.7067 0.9649
-6.8842 5.4376 -1.7052 0.9649
-7.4824 4.5652 -1.7038 0.9649
-7.9708 3.6278 -1.7023 0.9649
-8.3425 2.6393 -1.7008 0.9650
-8.5923 1.6141 -1.6994 0.9650
-8.7170 0.5672 -1.6980 0.9650
-8.7151 -0.4862 -1.6967 0.9651
-8.5869 -1.5310 -1.6954 0.9651
-8.3345 -2.5522 -1.6943 0.9651
-7.9618 -3.5351 -1.6933 0.9651
-7.4743 -4.4658 -1.6924 0.9651
-6.8792 -5.3311 -1.6917 0.9652
-6.1851 -6.1186 -1.6911 0.9652
-5.4020 -6.8173 -1.6907 0.9652
-4.5411 -7.4171 -1.6905 0.9652
-3.6148 -7.9097 -1.6904 0.9652
-2.6362 -8.2880 -1.6906 0.9652
-1.6193 -8.5466 -1.6908 0.9652
-0.5785 -8.6818 -1.6913 0.9652
0.4714 -8.6915 -1.6919 0.9652
1.5152 -8.5754 -1.6927 0.9651
2.5382 -8.3351 -1.6936 0.9651
3.5256 -7.9737 -1.6947 0.9651
4.4632 -7.4963 -1.6959 0.9651
5.3374 -6.9095 -1.6971 0.9650
6.1355 -6.2214 -1.6985 0.9650
6.8457 -5.4418 -1.6999 0.9650
7.4575 -4.5818 -1.7013 0.9650
7.9619 -3.6536 -1.7028 0.9649
8.3511 -2.6705 -1.7043 0.9649
8.6192 -1.6469 -1.7057 0.9649
8.7620 -0.5975 -1.7071 0.9648
8.7707 0.4620 -1.7072 0.9648
7.8894 1.3814 -1.5569 0.9679
7.6708 2.3230 -1.5579 0.9679
7.3397 3.2317 -1.5589 0.9678
6.9008 4.0942 -1.5597 0.9678
6.3603 4.8975 -1.5604 0.9678
5.7263 5.6297 -1.5609 0.9678
1.2661 1.5877 -0.3947 0.9918
3.5982 5.8363 -1.3327 0.9724
3.3618 7.2963 -1.5616 0.9678
2.4586 7.6475 -1.5615 0.9678
1.5195 7.8866 -1.5612 0.9678
0.5586 8.0100 -1.5608 0.9678
-0.4098 8.0160 -1.5602 0.9678
-1.3715 7.9047 -1.5595 0.9678
-2.3121 7.6778 -1.5586 0.9679
-3.2178 7.3389 -1.5576 0.9679
-4.0753 6.8933 -1.5566 0.9679
-5.3503 6.9707 -1.7081 0.9648
-6.1459 6.2707 -1.7067 0.9649
-6.8506 5.4805 -1.7053 0.9649
-7.4543 4.6117 -1.7038 0.9649
-7.9485 3.6773 -1.7024 0.9649
-8.3263 2.6911 -1.7009 0.9650
-8.5825 1.6674 -1.6995 0.9650
-8.7137 0.6213 -1.6981 0.9650
-8.7183 -0.4322 -1.6967 0.9651
-8.5965 -1.4778 -1.6955 0.9651
-8.3504 -2.5005 -1.6944 0.9651
-7.9837 -3.4858 -1.6934 0.9651
-7.5020 -4.4195 -1.6925 0.9651
-6.9122 -5.2884 -1.6917 0.9652
-6.2230 -6.0802 -1.6912 0.9652
-5.4442 -6.7837 -1.6907 0.9652
-4.5870 -7.3889 -1.6905 0.9652
-3.6638 -7.8871 -1.6904 0.9652
-2.6875 -8.2715 -1.6905 0.9652
-1.6722 -8.5363 -1.6908 0.9652
-0.6323 -8.6779 -1.6913 0.9652
0.4175 -8.6940 -1.6919 0.9652
1.4620 -8.5844 -1.6927 0.9651
2.4864 -8.3504 -1.6936 0.9651
3.4760 -7.9952 -1.6946 0.9651
