ply
format ascii 1.0
element vertex 1536
property float32 x
property float32 y
property float32 z
property float32 I
end_header
-88.7038 -3.4791 -1.5495 0.7011
-85.2302 -13.7345 -1.5069 0.7080
-85.3064 -24.5620 -1.5495 0.7011
-84.2916 -35.7288 -1.5980 0.6933
-51.5714 -29.6296 -1.0382 0.7882
-20.5166 -15.3412 -0.4472 0.9026
-30.1479 -28.8047 -0.7278 0.8464
-29.1343 -35.4725 -0.8012 0.8322
-7.2408 -11.3708 -0.2353 0.9475
-38.3299 -80.0705 -1.5495 0.7011
-28.4209 -84.0995 -1.5495 0.7011
-19.8778 -95.4436 -1.7017 0.6770
-8.2536 -97.1416 -1.7017 0.6770
1.3934 -38.8933 -0.6793 0.8558
1.8035 -11.4386 -0.2021 0.9547
9.3797 -32.9972 -0.5988 0.8718
13.7461 -32.7385 -0.6198 0.8676
18.8276 -33.0296 -0.6636 0.8589
24.5347 -33.0453 -0.7184 0.8482
31.1141 -32.7868 -0.7890 0.8346
40.7673 -33.7152 -0.9234 0.8093
52.1750 -33.4741 -1.0820 0.7804
22.6710 -10.9473 -0.4394 0.9042
32.9124 -11.2474 -0.6071 0.8701
52.7980 -11.1831 -0.9420 0.8058
97.1130 -8.5830 -1.7017 0.6770
44.7227 1.4503 -0.7810 0.8361
51.4929 7.9399 -0.9094 0.8119
23.0078 6.4557 -0.4171 0.9088
13.9362 5.7958 -0.2635 0.9414
10.8758 6.1506 -0.2181 0.9512
8.2798 6.1039 -0.1796 0.9597
1.9695 1.8564 -0.0472 0.9892
5.0904 6.1128 -0.1389 0.9687
4.3432 6.7192 -0.1397 0.9685
4.7530 9.7581 -0.1895 0.9575
4.0130 11.6141 -0.2145 0.9520
2.5175 11.6899 -0.2087 0.9533
4.7019 51.2180 -0.8978 0.8140
-0.5660 19.5005 -0.3405 0.9249
-14.5293 96.4028 -1.7017 0.6770
-22.7734 82.2353 -1.4894 0.7108
-7.2042 17.4898 -0.3302 0.9271
-25.6018 45.6305 -0.9133 0.8111
-25.5377 34.8883 -0.7547 0.8412
-25.6413 27.3900 -0.6549 0.8606
-25.8718 21.6940 -0.5893 0.8737
-25.7790 16.7874 -0.5370 0.8842
-25.6143 12.5838 -0.4981 0.8921
-26.0838 9.1119 -0.4823 0.8954
-27.6526 6.0536 -0.4941 0.8929
-47.6938 4.5419 -0.8363 0.8256
-34.3343 -0.8801 -0.5995 0.8716
-85.2726 -12.5562 -1.5045 0.7083
-85.6319 -23.4017 -1.5495 0.7011
-84.3045 -34.3918 -1.5893 0.6947
-53.2244 -29.6250 -1.0632 0.7837
-20.4902 -14.8918 -0.4421 0.9036
-31.9196 -29.6792 -0.7608 0.8400
-29.1316 -34.5034 -0.7882 0.8347
-7.4237 -11.3158 -0.2362 0.9473
-29.1944 -58.9180 -1.1477 0.7687
-29.5606 -83.7056 -1.5495 0.7011
-21.1716 -95.1649 -1.7017 0.6770
-9.5715 -97.0206 -1.7017 0.6770
1.2524 -56.3165 -0.9832 0.7982
8.1752 -56.8574 -1.0027 0.7947
8.8236 -32.7248 -0.5916 0.8732
13.2516 -32.8021 -0.6175 0.8680
18.2305 -33.0160 -0.6583 0.8599
23.8342 -33.0294 -0.7110 0.8496
30.3785 -32.8948 -0.7816 0.8360
13.0131 -11.0631 -0.2981 0.9340
36.6428 -24.2179 -0.7667 0.8389
22.4062 -11.1973 -0.4372 0.9046
83.6049 -29.8444 -1.5495 0.7011
95.0926 -21.4943 -1.7017 0.6770
92.9833 -9.4918 -1.6315 0.6880
88.7562 1.6718 -1.5495 0.7011
53.3279 7.4827 -0.9400 0.8062
23.0878 6.1413 -0.4170 0.9088
13.9341 5.5743 -0.2620 0.9417
11.2271 6.1497 -0.2234 0.9501
8.5188 6.1033 -0.1829 0.9589
1.9694 1.8064 -0.0466 0.9894
5.2323 6.1124 -0.1404 0.9683
4.1882 6.2904 -0.1319 0.9702
4.8557 9.6346 -0.1883 0.9578
4.0116 11.1187 -0.2063 0.9538
2.5210 10.9795 -0.1966 0.9559
5.4210 51.3750 -0.9017 0.8133
-0.3046 19.7250 -0.3443 0.9241
-13.2193 96.5912 -1.7017 0.6770
-22.5284 85.8658 -1.5495 0.7011
-25.2902 63.8454 -1.1987 0.7598
-25.7044 47.3081 -0.9398 0.8062
-25.5674 35.9432 -0.7699 0.8382
-25.7163 28.2287 -0.6665 0.8583
-25.6806 22.1343 -0.5918 0.8732
-25.5751 17.1534 -0.5375 0.8841
-25.7646 13.0951 -0.5045 0.8908
-25.9846 9.4752 -0.4828 0.8953
-27.3367 6.3745 -0.4900 0.8938
-41.1541 4.4837 -0.7226 0.8474
28.2674 -15.9780 -1.7017 0.8780
27.4365 -11.4033 -1.5571 0.8878
31.2652 -8.7652 -1.7017 0.8780
32.0925 -4.9411 -1.7017 0.8780
32.4538 -1.0452 -1.7017 0.8780
29.4511 2.6095 -1.5495 0.8883
27.6088 5.8542 -1.4791 0.8931
17.2029 5.8831 -0.9528 0.9298
12.6166 6.0958 -0.7343 0.9454
9.5877 6.1542 -0.5971 0.9554
2.0370 1.6854 -0.1385 0.9895
5.8439 6.1608 -0.4450 0.9666
4.4664 6.0185 -0.3928 0.9704
5.1053 8.9609 -0.5405 0.9595
4.3534 10.3747 -0.5896 0.9559
2.9611 10.4257 -0.5680 0.9575
4.5372 28.8182 -1.5289 0.8897
1.1554 32.4501 -1.7017 0.8780
-0.8495 9.9726 -0.5245 0.9607
-6.6274 31.7871 -1.7017 0.8780
-10.4026 30.7592 -1.7017 0.8780
-7.2301 15.0950 -0.8772 0.9352
-17.4472 27.3850 -1.7017 0.8780
-20.6143 25.0877 -1.7017 0.8780
-22.5861 21.5704 -1.6368 0.8824
-23.6828 17.7004 -1.5495 0.8883
-25.3071 14.5323 -1.5294 0.8897
-25.3752 10.7492 -1.4443 0.8955
-26.5647 7.6424 -1.4487 0.8952
-29.1909 4.6974 -1.5495 0.8883
-29.5440 1.1523 -1.5495 0.8883
-32.3626 -2.6462 -1.7017 0.8780
-31.8094 -6.5195 -1.7017 0.8780
-28.6425 -9.5785 -1.5828 0.8861
-29.3321 -13.9271 -1.7017 0.8780
-20.2594 -12.8109 -1.2562 0.9085
-25.1575 -20.5290 -1.7017 0.8780
-22.5057 -23.4059 -1.7017 0.8780
-7.4164 -9.8531 -0.6463 0.9518
-6.5726 -11.3564 -0.6877 0.9488
-12.7668 -29.8555 -1.7017 0.8780
-9.0832 -31.1743 -1.7017 0.8780
-5.2676 -32.0405 -1.7017 0.8780
-1.2526 -29.5399 -1.5495 0.8883
2.3095 -29.4761 -1.5495 0.8883
5.8380 -28.9844 -1.5495 0.8883
3.6114 -10.9223 -0.6029 0.9550
12.5908 -26.7516 -1.5495 0.8883
15.7170 -25.0430 -1.5495 0.8883
19.0027 -23.4492 -1.5818 0.8861
23.3293 -22.5851 -1.7017 0.8780
25.8764 -19.6151 -1.7017 0.8780
28.0478 -16.3603 -1.7017 0.8780
27.2791 -11.7748 -1.5571 0.8878
31.1433 -9.1889 -1.7017 0.8780
32.0224 -5.3764 -1.7017 0.8780
32.4366 -1.4858 -1.7017 0.8780
29.4838 2.2094 -1.5495 0.8883
29.0040 5.7396 -1.5495 0.8883
17.9908 5.8809 -0.9920 0.9270
12.8485 5.9940 -0.7430 0.9448
9.8790 6.1534 -0.6100 0.9545
2.0757 1.6705 -0.1396 0.9894
6.0044 6.1603 -0.4508 0.9661
4.7055 6.1639 -0.4064 0.9694
5.1045 8.6832 -0.5279 0.9605
4.3197 9.9151 -0.5668 0.9576
3.1145 10.4253 -0.5702 0.9574
4.0718 23.7575 -1.2633 0.9080
1.5959 32.4314 -1.7017 0.8780
-0.7152 9.9989 -0.5254 0.9606
-6.1952 31.8741 -1.7017 0.8780
-9.9840 30.8976 -1.7017 0.8780
-7.0279 15.1990 -0.8776 0.9351
-17.0737 27.6194 -1.7017 0.8780
-20.2717 25.3653 -1.7017 0.8780
-22.5789 22.1575 -1.6579 0.8810
-23.4403 18.0203 -1.5495 0.8883
-25.3043 14.9912 -1.5414 0.8889
-25.3280 11.1372 -1.4500 0.8951
-26.4301 7.9938 -1.4471 0.8953
-29.1245 5.0934 -1.5495 0.8883
-29.5256 1.5534 -1.5495 0.8883
-32.3956 -2.2065 -1.7017 0.8780
-31.8950 -6.0870 -1.7017 0.8780
-29.7170 -9.4912 -1.6349 0.8825
-29.5185 -13.5276 -1.7017 0.8780
-20.2594 -12.4291 -1.2456 0.9092
-25.4340 -20.1855 -1.7017 0.8780
-22.8214 -23.0981 -1.7017 0.8780
-7.6477 -9.8783 -0.6547 0.9512
-6.5815 -11.0236 -0.6729 0.9499
-13.1710 -29.6794 -1.7017 0.8780
-9.5056 -31.0481 -1.7017 0.8780
-5.7022 -31.9660 -1.7017 0.8780
-1.6536 -29.5202 -1.5495 0.8883
1.9090 -29.5048 -1.5495 0.8883
5.4439 -29.0610 -1.5495 0.8883
3.5029 -11.0974 -0.6099 0.9545
12.2264 -26.9201 -1.5495 0.8883
15.3755 -25.2541 -1.5495 0.8883
18.4834 -23.4523 -1.5649 0.8873
23.0205 -22.8997 -1.7017 0.8780
25.6077 -19.9647 -1.7017 0.8780
27.8231 -16.7397 -1.7017 0.8780
27.1167 -12.1441 -1.5571 0.8878
30.6027 -9.4830 -1.6791 0.8796
31.9465 -5.8107 -1.7017 0.8780
32.4135 -1.9261 -1.7017 0.8780
29.5111 1.8088 -1.5495 0.8883
29.0793 5.3452 -1.5495 0.8883
18.8462 5.8785 -1.0346 0.9240
13.0964 5.8945 -0.7527 0.9441
10.1008 6.1028 -0.6184 0.9538
7.8647 6.1552 -0.5234 0.9608
6.1693 6.1599 -0.4569 0.9657
4.8391 6.1636 -0.4107 0.9691
5.0703 8.3630 -0.5125 0.9616
4.4807 9.9146 -0.5702 0.9574
3.2692 10.4249 -0.5726 0.9572
2.7176 14.6583 -0.7813 0.9420
2.0361 32.4067 -1.7017 0.8780
-0.5873 10.1458 -0.5326 0.9601
-5.7618 31.9553 -1.7017 0.8780
-9.5635 31.0303 -1.7017 0.8780
-6.9480 15.5782 -0.8939 0.9340
-16.6971 27.8487 -1.7017 0.8780
-19.9254 25.6382 -1.7017 0.8780
-22.5714 22.7601 -1.6799 0.8795
-23.1934 18.3369 -1.5495 0.8883
-25.2305 15.4142 -1.5495 0.8883
-25.3255 11.5490 -1.4587 0.8945
-26.2958 8.3446 -1.4458 0.8954
-28.7942 5.4396 -1.5357 0.8893
-29.5018 1.9542 -1.5495 0.8883
-32.4225 -1.7664 -1.7017 0.8780
-31.9747 -5.6533 -1.7017 0.8780
-31.0626 -9.4581 -1.7017 0.8780
-27.6460 -12.2180 -1.5841 0.8860
-20.2997 -12.0775 -1.2379 0.9097
-20.2594 -15.6351 -1.3412 0.9026
-23.1330 -22.7861 -1.7017 0.8780
-7.9402 -9.9734 -0.6681 0.9502
-6.6007 -10.7223 -0.6599 0.9508
-13.5728 -29.4978 -1.7017 0.8780
-9.9263 -30.9161 -1.7017 0.8780
-6.1358 -31.8856 -1.7017 0.8780
-2.0543 -29.4950 -1.5495 0.8883
1.5082 -29.5280 -1.5495 0.8883
5.0488 -29.1322 -1.5495 0.8883
8.5161 -28.3135 -1.5495 0.8883
11.8597 -27.0836 -1.5495 0.8883
15.0312 -25.4605 -1.5495 0.8883
17.9844 -23.4678 -1.5495 0.8883
22.6649 -23.1668 -1.6985 0.8783
25.3343 -20.3105 -1.7017 0.8780
20.1122 -12.4755 -1.2403 0.9096
22.8191 -10.5937 -1.3185 0.9041
29.2334 -9.4956 -1.6109 0.8842
31.8646 -6.2440 -1.7017 0.8780
32.3843 -2.3661 -1.7017 0.8780
29.5329 1.4080 -1.5495 0.8883
29.1492 4.9499 -1.5495 0.8883
19.7788 5.8759 -1.0813 0.9207
13.5833 5.8931 -0.7760 0.9424
10.5013 6.1517 -0.6378 0.9524
8.0223 6.1047 -0.5283 0.9604
6.3387 6.1594 -0.4632 0.9652
4.9755 6.1632 -0.4151 0.9688
4.2936 6.8697 -0.4246 0.9681
4.6363 9.8985 -0.5728 0.9572
3.4253 10.4244 -0.5751 0.9570
2.7147 13.6089 -0.7273 0.9459
2.4760 32.3761 -1.7017 0.8780
-0.8699 19.6486 -1.0307 0.9242
-5.3274 32.0306 -1.7017 0.8780
-9.1413 31.1573 -1.7017 0.8780
-6.9736 16.2241 -0.9255 0.9317
-16.3174 28.0728 -1.7017 0.8780
-19.5755 25.9064 -1.7017 0.8780
-22.4699 23.2816 -1.6957 0.8784
-22.9423 18.6502 -1.5495 0.8883
-25.0189 15.7554 -1.5495 0.8883
-25.3229 11.9658 -1.4678 0.8939
-26.1618 8.6947 -1.4448 0.8955
-22.4256 4.5527 -1.1993 0.9124
-29.4726 2.3546 -1.5495 0.8883
-32.4435 -1.3260 -1.7017 0.8780
-32.0485 -5.2186 -1.7017 0.8780
-31.1882 -9.0354 -1.7017 0.8780
-27.4546 -11.6905 -1.5638 0.8873
-20.5402 -11.8459 -1.2427 0.9094
-20.2594 -15.2007 -1.3274 0.9035
-23.4403 -22.4699 -1.7017 0.8780
-20.5675 -25.1261 -1.7017 0.8780
-6.6458 -10.4742 -0.6501 0.9515
-13.9721 -29.3108 -1.7017 0.8780
-10.3452 -30.7785 -1.7017 0.8780
-6.5682 -31.7994 -1.7017 0.8780
-2.4547 -29.4644 -1.5495 0.8883
1.1071 -29.5457 -1.5495 0.8883
1.8251 -11.4530 -0.6078 0.9546
8.1309 -28.4265 -1.5495 0.8883
11.4909 -27.2422 -1.5495 0.8883
14.6841 -25.6623 -1.5495 0.8883
17.6641 -23.7098 -1.5495 0.8883
11.8608 -12.4574 -0.9015 0.9334
15.1413 -12.4803 -1.0283 0.9244
19.6132 -12.5379 -1.2200 0.9110
22.1994 -10.6748 -1.2909 0.9060
28.1312 -9.5618 -1.5571 0.8878
31.7769 -6.6760 -1.7017 0.8780
32.3492 -2.8055 -1.7017 0.8780
29.5493 1.0068 -1.5495 0.8883
29.2137 4.5536 -1.5495 0.8883
22.9133 6.4699 -1.2478 0.9090
14.2202 5.9414 -0.8077 0.9401
10.8344 6.1508 -0.6529 0.9513
8.2515 6.1040 -0.5379 0.9597
6.5128 6.1589 -0.4698 0.9647
5.1150 6.1628 -0.4197 0.9684
4.3433 6.7436 -0.4204 0.9684
4.7404 9.7732 -0.5693 0.9574
4.0132 11.6767 -0.6471 0.9517
2.5177 11.7850 -0.6316 0.9529
2.9154 32.3395 -1.7017 0.8780
-0.6014 19.6069 -1.0280 0.9244
-4.8919 32.1000 -1.7017 0.8780
-8.7173 31.2786 -1.7017 0.8780
-6.9636 16.8272 -0.9544 0.9297
-8.4506 15.0039 -0.9025 0.9334
-19.2219 26.1698 -1.7017 0.8780
-22.2090 23.6456 -1.7001 0.8781
-22.6869 18.9600 -1.5495 0.8883
-24.8027 16.0936 -1.5495 0.8883
-25.3203 12.3879 -1.4773 0.8932
-26.0278 9.0445 -1.4441 0.8955
-27.5757 5.9892 -1.4789 0.8931
-29.4379 2.7546 -1.5495 0.8883
-32.4586 -0.8853 -1.7017 0.8780
-32.1164 -4.7830 -1.7017 0.8780
-31.3080 -8.6111 -1.7017 0.8780
-27.4923 -11.2680 -1.5571 0.8878
-20.9928 -11.7300 -1.2603 0.9082
-20.2665 -14.7802 -1.3146 0.9044
-23.7432 -22.1495 -1.7017 0.8780
-20.9068 -24.8445 -1.7017 0.8780
-6.7022 -10.2527 -0.6419 0.9521
-6.5984 -13.3717 -0.7815 0.9420
-10.7622 -30.6352 -1.7017 0.8780
-6.9994 -31.7073 -1.7017 0.8780
-2.8545 -29.4284 -1.5495 0.8883
0.7058 -29.5581 -1.5495 0.8883
1.6702 -11.4825 -0.6081 0.9546
7.7441 -28.5343 -1.5495 0.8883
11.1199 -27.3957 -1.5495 0.8883
14.3343 -25.8593 -1.5495 0.8883
17.3405 -23.9475 -1.5495 0.8883
21.7110 -23.4321 -1.6741 0.8799
12.9468 -10.9700 -0.8893 0.9343
15.1128 -9.9527 -0.9484 0.9301
20.0548 -9.9811 -1.1740 0.9142
27.9988 -9.9429 -1.5571 0.8878
31.6833 -7.1069 -1.7017 0.8780
32.3081 -3.2446 -1.7017 0.8780
32.4177 0.6640 -1.6993 0.8782
29.2729 4.1565 -1.5495 0.8883
23.0880 6.1819 -1.2526 0.9087
13.9515 5.6078 -0.7880 0.9416
11.1837 6.1498 -0.6689 0.9502
8.4893 6.1033 -0.5480 0.9590
6.6878 6.1545 -0.4763 0.9642
5.2576 6.1624 -0.4245 0.9681
4.1882 6.3130 -0.3970 0.9701
4.8434 9.6495 -0.5658 0.9577
4.0118 11.1764 -0.6223 0.9535
2.5157 11.0394 -0.5934 0.9557
3.3542 32.2969 -1.7017 0.8780
-0.3382 19.7928 -1.0374 0.9238
-4.4556 32.1635 -1.7017 0.8780
-8.2918 31.3941 -1.7017 0.8780
-6.9450 17.4492 -0.9842 0.9275
-8.1790 14.9944 -0.8951 0.9339
-18.8647 26.4285 -1.7017 0.8780
-21.9065 23.9676 -1.7017 0.8780
-22.6119 19.4248 -1.5623 0.8875
-24.5818 16.4290 -1.5495 0.8883
-25.3177 12.8156 -1.4871 0.8926
-25.8941 9.3939 -1.4436 0.8955
-27.0901 6.2702 -1.4573 0.8946
-29.3978 3.1540 -1.5495 0.8883
-32.4676 -0.4445 -1.7017 0.8780
-32.1784 -4.3464 -1.7017 0.8780
-31.4220 -8.1852 -1.7017 0.8780
-27.6428 -10.8937 -1.5571 0.8878
-28.5582 -15.4522 -1.7017 0.8780
-20.2571 -14.3561 -1.3012 0.9053
-24.0418 -21.8251 -1.7017 0.8780
-21.2422 -24.5583 -1.7017 0.8780
-6.7868 -10.0805 -0.6369 0.9525
-6.5674 -12.8658 -0.7570 0.9438
-11.1772 -30.4863 -1.7017 0.8780
-7.4292 -31.6093 -1.7017 0.8780
-3.2537 -29.3869 -1.5495 0.8883
0.3044 -29.5649 -1.5495 0.8883
3.8582 -29.3137 -1.5495 0.8883
7.3559 -28.6368 -1.5495 0.8883
10.7469 -27.5442 -1.5495 0.8883
13.9819 -26.0516 -1.5495 0.8883
16.8685 -23.9744 -1.5363 0.8892
20.4492 -22.6804 -1.6004 0.8849
12.8025 -11.1499 -0.8897 0.9343
18.4329 -12.5013 -1.1672 0.9147
22.1902 -11.4223 -1.3080 0.9049
27.8612 -10.3221 -1.5571 0.8878
31.5839 -7.5365 -1.7017 0.8780
32.2611 -3.6829 -1.7017 0.8780
32.4699 0.2240 -1.7017 0.8780
29.3266 3.7586 -1.5495 0.8883
23.1643 5.8665 -1.2523 0.9087
13.9509 5.3887 -0.7838 0.9419
11.5506 6.1488 -0.6858 0.9489
8.7362 6.1027 -0.5585 0.9582
1.9976 1.7888 -0.1405 0.9893
5.4035 6.1620 -0.4295 0.9677
4.1877 6.1299 -0.3891 0.9707
4.9451 9.5272 -0.5626 0.9579
4.0877 10.9195 -0.6111 0.9544
2.5255 10.4270 -0.5623 0.9579
3.4533 29.3641 -1.5495 0.8883
-0.1139 32.4704 -1.7017 0.8780
-4.0184 32.2210 -1.7017 0.8780
-7.8648 31.5038 -1.7017 0.8780
-6.9302 18.1243 -1.0169 0.9252
-7.9103 14.9821 -0.8879 0.9344
-18.5042 26.6822 -1.7017 0.8780
-21.5791 24.2628 -1.7017 0.8780
-22.6055 19.9592 -1.5804 0.8862
-24.3565 16.7612 -1.5495 0.8883
-25.3150 13.2490 -1.4974 0.8919
-25.7603 9.7433 -1.4434 0.8956
-26.9540 6.6255 -1.4546 0.8948
-29.3522 3.5530 -1.5495 0.8883
-32.4706 -0.0036 -1.7017 0.8780
-32.2345 -3.9091 -1.7017 0.8780
-31.5303 -7.7577 -1.7017 0.8780
-27.7882 -10.5173 -1.5571 0.8878
-28.7654 -15.0631 -1.7017 0.8780
-20.2735 -13.9580 -1.2900 0.9061
-24.3359 -21.4966 -1.7017 0.8780
-21.5737 -24.2677 -1.7017 0.8780
-6.9178 -9.9799 -0.6364 0.9525
-6.5712 -12.4526 -0.7379 0.9452
-11.5902 -30.3317 -1.7017 0.8780
-7.8578 -31.5055 -1.7017 0.8780
-3.6559 -29.3672 -1.5509 0.8882
-0.0972 -29.5663 -1.5495 0.8883
3.4598 -29.3633 -1.5495 0.8883
6.9665 -28.7340 -1.5495 0.8883
4.2166 -11.2562 -0.6299 0.9530
13.6268 -26.2390 -1.5495 0.8883
16.5187 -24.1679 -1.5342 0.8894
20.5635 -23.4395 -1.6341 0.8826
24.1942 -21.6560 -1.7017 0.8780
26.6233 -18.5888 -1.7017 0.8780
18.7777 -9.9907 -1.1147 0.9183
27.7185 -10.6995 -1.5571 0.8878
31.4786 -7.9647 -1.7017 0.8780
32.2081 -4.1207 -1.7017 0.8780
32.4699 -0.2168 -1.7017 0.8780
14.3601 1.6426 -0.7575 0.9437
24.5450 5.8627 -1.3225 0.9039
14.3616 5.3244 -0.8027 0.9405
11.8401 6.0980 -0.6980 0.9481
8.8875 6.0304 -0.5629 0.9579
1.9975 1.7404 -0.1388 0.9894
4.8235 5.3522 -0.3776 0.9716
4.2331 6.0191 -0.3856 0.9710
5.0457 9.4063 -0.5594 0.9581
4.2006 10.7732 -0.6060 0.9547
2.6758 10.4265 -0.5641 0.9578
3.5983 27.3862 -1.4476 0.8953
0.3271 32.4690 -1.7017 0.8780
-3.5806 32.2726 -1.7017 0.8780
-7.4362 31.6077 -1.7017 0.8780
-11.1840 30.4838 -1.7017 0.8780
-7.6683 15.0140 -0.8835 0.9347
-18.1401 26.9310 -1.7017 0.8780
-21.2477 24.5536 -1.7017 0.8780
-22.5990 20.5062 -1.5993 0.8849
-24.1267 17.0904 -1.5495 0.8883
-25.3123 13.6886 -1.5081 0.8911
-25.6266 10.0926 -1.4434 0.8955
-26.8184 6.9797 -1.4523 0.8949
-29.3013 3.9511 -1.5495 0.8883
-32.4678 0.4373 -1.7017 0.8780
-32.2846 -3.4710 -1.7017 0.8780
-31.6327 -7.3290 -1.7017 0.8780
-27.9284 -10.1390 -1.5571 0.8878
-28.9673 -14.6710 -1.7017 0.8780
-20.2915 -13.5680 -1.2793 0.9069
-24.6256 -21.1642 -1.7017 0.8780
-21.9012 -23.9725 -1.7017 0.8780
-7.0749 -9.9161 -0.6384 0.9524
-6.5747 -12.0595 -0.7198 0.9465
-12.0009 -30.1715 -1.7017 0.8780
-8.2849 -31.3959 -1.7017 0.8780
-4.4485 -32.1645 -1.7017 0.8780
-0.4984 -29.5623 -1.5495 0.8883
3.0607 -29.4076 -1.5495 0.8883
6.5756 -28.8260 -1.5495 0.8883
3.9109 -10.8880 -0.6063 0.9547
13.2692 -26.4217 -1.5495 0.8883
16.3509 -24.6338 -1.5495 0.8883
20.0098 -23.4430 -1.6153 0.8839
13.5357 -12.4508 -0.9638 0.9290
7.3923 -5.3121 -0.4771 0.9642
28.4561 -15.6395 -1.7017 0.8780
25.0123 -10.0473 -1.4126 0.8977
31.3676 -8.3913 -1.7017 0.8780
32.1492 -4.5577 -1.7017 0.8780
32.4640 -0.6577 -1.7017 0.8780
29.4178 2.9610 -1.5495 0.8883
26.0900 5.8584 -1.4014 0.8984
16.5598 5.8849 -0.9210 0.9320
12.2435 6.0968 -0.7168 0.9467
9.1149 6.0056 -0.5721 0.9572
2.0137 1.7070 -0.1383 0.9895
4.9121 5.3038 -0.3789 0.9715
4.3562 6.0188 -0.3894 0.9707
5.1060 9.2162 -0.5522 0.9587
4.3262 10.6650 -0.6032 0.9549
2.8271 10.4261 -0.5661 0.9577
4.2493 29.2595 -1.5495 0.8883
0.7680 32.4615 -1.7017 0.8780
-0.9741 10.0195 -0.5276 0.9605
-7.0063 31.7057 -1.7017 0.8780
-10.7690 30.6328 -1.7017 0.8780
-7.4325 15.0535 -0.8798 0.9350
-17.7727 27.1748 -1.7017 0.8780
-20.9123 24.8398 -1.7017 0.8780
-22.5922 21.0663 -1.6189 0.8836
-23.8923 17.4164 -1.5495 0.8883
-25.3096 14.1347 -1.5192 0.8904
-23.1565 9.4849 -1.3114 0.9046
-26.6832 7.3327 -1.4502 0.8951
-29.2449 4.3487 -1.5495 0.8883
-32.3443 0.8751 -1.6957 0.8784
-32.3287 -3.0323 -1.7017 0.8780
-31.7293 -6.8988 -1.7017 0.8780
-28.1292 -9.7816 -1.5608 0.8876
-29.1638 -14.2763 -1.7017 0.8780
-20.2926 -13.1736 -1.2679 0.9076
-24.9107 -20.8278 -1.7017 0.8780
-22.2247 -23.6728 -1.7017 0.8780
-7.2498 -9.8750 -0.6420 0.9521
-6.5726 -11.6755 -0.7022 0.9477
-12.4095 -30.0058 -1.7017 0.8780
-8.7103 -31.2805 -1.7017 0.8780
-4.8848 -32.1011 -1.7017 0.8780
-0.7841 -25.7503 -1.3502 0.9020
2.6611 -29.4465 -1.5495 0.8883
6.1836 -28.9126 -1.5495 0.8883
3.7447 -10.8877 -0.6034 0.9549
12.9092 -26.5994 -1.5495 0.8883
16.0148 -24.8536 -1.5495 0.8883
19.4687 -23.4463 -1.5972 0.8851
23.5972 -22.3050 -1.7017 0.8780
13.4613 -9.9533 -0.8774 0.9351
28.2411 -16.0243 -1.7017 0.8780
27.4177 -11.4483 -1.5571 0.8878
31.2508 -8.8165 -1.7017 0.8780
32.0843 -4.9938 -1.7017 0.8780
32.4520 -1.0985 -1.7017 0.8780
29.4553 2.5612 -1.5495 0.8883
27.8313 5.8535 -1.4905 0.8923
17.2949 5.8828 -0.9574 0.9294
12.6693 6.0957 -0.7368 0.9452
9.6223 6.1541 -0.5986 0.9553
2.0407 1.6829 -0.1386 0.9895
5.8630 6.1607 -0.4457 0.9665
4.4817 6.0184 -0.3933 0.9704
5.1052 8.9266 -0.5389 0.9596
4.3532 10.3268 -0.5873 0.9561
2.9796 10.4257 -0.5683 0.9575
3.8144 23.9717 -1.2721 0.9074
1.2087 32.4481 -1.7017 0.8780
-0.8327 9.9684 -0.5242 0.9607
-6.5753 31.7979 -1.7017 0.8780
-10.3520 30.7762 -1.7017 0.8780
-7.2026 15.1012 -0.8768 0.9352
-17.4022 27.4136 -1.7017 0.8780
-20.5730 25.1215 -1.7017 0.8780
-22.5852 21.6406 -1.6393 0.8822
-23.6537 17.7392 -1.5495 0.8883
-25.3068 14.5875 -1.5308 0.8896
-25.3590 10.7914 -1.4443 0.8955
-26.5484 7.6849 -1.4485 0.8952
-29.1832 4.7454 -1.5495 0.8883
-29.5421 1.2008 -1.5495 0.8883
-32.3669 -2.5930 -1.7017 0.8780
-31.8201 -6.4672 -1.7017 0.8780
-28.7351 -9.5571 -1.5871 0.8858
-29.3550 -13.8790 -1.7017 0.8780
-20.2594 -12.7644 -1.2549 0.9085
-25.1912 -20.4877 -1.7017 0.8780
-22.5441 -23.3688 -1.7017 0.8780
-7.4403 -9.8512 -0.6470 0.9518
-6.5729 -11.3138 -0.6857 0.9489
-12.8158 -29.8345 -1.7017 0.8780
-9.1343 -31.1594 -1.7017 0.8780
-5.3203 -32.0318 -1.7017 0.8780
-1.3011 -29.5378 -1.5495 0.8883
2.2611 -29.4799 -1.5495 0.8883
5.7904 -28.9939 -1.5495 0.8883
3.5974 -10.9400 -0.6035 0.9549
12.5469 -26.7722 -1.5495 0.8883
15.6759 -25.0688 -1.5495 0.8883
18.9393 -23.4496 -1.5797 0.8863
23.2922 -22.6234 -1.7017 0.8780
25.8442 -19.6576 -1.7017 0.8780
28.0209 -16.4064 -1.7017 0.8780
27.2597 -11.8196 -1.5571 0.8878
31.1282 -9.2401 -1.7017 0.8780
32.0136 -5.4289 -1.7017 0.8780
32.4341 -1.5391 -1.7017 0.8780
29.4874 2.1610 -1.5495 0.8883
29.0134 5.6920 -1.5495 0.8883
18.0905 5.8806 -0.9969 0.9266
12.8583 5.9729 -0.7430 0.9448
9.9151 6.1533 -0.6116 0.9543
2.0813 1.6693 -0.1398 0.9894
6.0241 6.1603 -0.4516 0.9661
4.7215 6.1639 -0.4069 0.9694
5.1045 8.6505 -0.5264 0.9606
4.3391 9.9150 -0.5672 0.9576
3.1332 10.4252 -0.5705 0.9573
4.1273 23.8468 -1.2683 0.9076
1.6491 32.4287 -1.7017 0.8780
-0.6993 10.0089 -0.5258 0.9606
-2.9492 15.3076 -0.8170 0.9395
-9.9333 30.9139 -1.7017 0.8780
-7.0122 15.2308 -0.8787 0.9350
-17.0284 27.6474 -1.7017 0.8780
-20.2300 25.3986 -1.7017 0.8780
-22.5780 22.2295 -1.6605 0.8808
-23.4106 18.0587 -1.5495 0.8883
-25.3039 15.0473 -1.5429 0.8888
-25.3277 11.1867 -1.4511 0.8950
-26.4139 8.0362 -1.4469 0.8953
-29.1160 5.1412 -1.5495 0.8883
-29.5231 1.6019 -1.5495 0.8883
-32.3992 -2.1534 -1.7017 0.8780
-31.9050 -6.0346 -1.7017 0.8780
-29.8814 -9.4897 -1.6431 0.8820
-29.5408 -13.4791 -1.7017 0.8780
-20.2594 -12.3833 -1.2444 0.9093
-20.3893 -16.1274 -1.3624 0.9011
-22.8594 -23.0606 -1.7017 0.8780
-7.6765 -9.8820 -0.6558 0.9511
-6.5824 -10.9842 -0.6711 0.9500
-13.2197 -29.6577 -1.7017 0.8780
-9.5566 -31.0324 -1.7017 0.8780
-5.7547 -31.9566 -1.7017 0.8780
-1.7021 -29.5174 -1.5495 0.8883
1.8606 -29.5079 -1.5495 0.8883
5.3961 -29.0699 -1.5495 0.8883
3.4986 -11.1475 -0.6123 0.9543
12.1822 -26.9401 -1.5495 0.8883
15.3340 -25.2793 -1.5495 0.8883
18.4213 -23.4527 -1.5629 0.8874
22.9829 -22.9375 -1.7017 0.8780
25.5748 -20.0068 -1.7017 0.8780
27.7955 -16.7855 -1.7017 0.8780
27.0967 -12.1887 -1.5571 0.8878
30.4309 -9.4846 -1.6705 0.8801
31.9369 -5.8632 -1.7017 0.8780
32.4103 -1.9793 -1.7017 0.8780
29.5140 1.7602 -1.5495 0.8883
29.0881 5.2974 -1.5495 0.8883
19.1147 5.9278 -1.0488 0.9230
13.1537 5.8943 -0.7554 0.9439
10.2209 6.1525 -0.6252 0.9533
7.8913 6.1551 -0.5245 0.9607
6.1896 6.1598 -0.4576 0.9656
4.8554 6.1635 -0.4112 0.9691
5.0891 8.3629 -0.5131 0.9615
4.5003 9.9146 -0.5706 0.9573
3.2880 10.4248 -0.5729 0.9572
2.7173 14.5228 -0.7743 0.9425
2.0894 32.4033 -1.7017 0.8780
-0.5719 10.1686 -0.5338 0.9600
-5.7093 31.9648 -1.7017 0.8780
-9.5126 31.0460 -1.7017 0.8780
-6.9580 15.6695 -0.8985 0.9336
-16.6514 27.8760 -1.7017 0.8780
-19.8832 25.6710 -1.7017 0.8780
-22.5705 22.8340 -1.6826 0.8793
-23.1633 18.3750 -1.5495 0.8883
-25.2052 15.4555 -1.5495 0.8883
-25.3252 11.5990 -1.4598 0.8944
-26.2796 8.3870 -1.4457 0.8954
-28.7178 5.4741 -1.5321 0.8895
-29.4986 2.0026 -1.5495 0.8883
-32.4254 -1.7132 -1.7017 0.8780
-31.9839 -5.6009 -1.7017 0.8780
-31.0781 -9.4072 -1.7017 0.8780
-27.6030 -12.1448 -1.5804 0.8862
-20.3157 -12.0418 -1.2377 0.9097
-20.2594 -15.5821 -1.3395 0.9027
-23.1704 -22.7481 -1.7017 0.8780
-7.9797 -9.9894 -0.6700 0.9501
-6.6042 -10.6886 -0.6585 0.9509
-13.6213 -29.4755 -1.7017 0.8780
-9.9771 -30.8998 -1.7017 0.8780
-6.1881 -31.8755 -1.7017 0.8780
-2.1026 -29.4916 -1.5495 0.8883
1.4598 -29.5304 -1.5495 0.8883
5.0009 -29.1405 -1.5495 0.8883
8.4696 -28.3274 -1.5495 0.8883
11.8152 -27.1031 -1.5495 0.8883
14.9894 -25.4852 -1.5495 0.8883
17.9460 -23.4973 -1.5495 0.8883
22.6199 -23.1970 -1.6980 0.8783
25.3008 -20.3522 -1.7017 0.8780
20.0855 -12.5047 -1.2400 0.9096
22.7157 -10.5911 -1.3135 0.9045
29.0755 -9.4971 -1.6030 0.8847
31.8544 -6.2962 -1.7017 0.8780
32.3804 -2.4193 -1.7017 0.8780
29.5352 1.3594 -1.5495 0.8883
29.1573 4.9020 -1.5495 0.8883
19.8973 5.8756 -1.0873 0.9203
13.6441 5.8930 -0.7789 0.9422
10.5408 6.1516 -0.6396 0.9523
8.1153 6.1545 -0.5338 0.9600
6.3595 6.1593 -0.4640 0.9652
4.9922 6.1631 -0.4157 0.9687
4.3064 6.8651 -0.4247 0.9681
4.6489 9.8833 -0.5724 0.9572
3.4442 10.4244 -0.5754 0.9570
2.7144 13.4916 -0.7212 0.9464
2.5291 32.3720 -1.7017 0.8780
-0.8366 19.6252 -1.0294 0.9243
-5.2748 32.0393 -1.7017 0.8780
-9.0900 31.1723 -1.7017 0.8780
-6.9723 16.2950 -0.9289 0.9315
-16.2712 28.0996 -1.7017 0.8780
-19.5329 25.9385 -1.7017 0.8780
-22.4386 23.3256 -1.6962 0.8784
-22.9117 18.6877 -1.5495 0.8883
-24.9929 15.7965 -1.5495 0.8883
-25.3226 12.0166 -1.4689 0.8938
-26.1456 8.7371 -1.4447 0.8955
-22.4420 4.5944 -1.2005 0.9123
-29.4687 2.4029 -1.5495 0.8883
-32.4457 -1.2726 -1.7017 0.8780
-32.0571 -5.1659 -1.7017 0.8780
-31.2030 -8.9842 -1.7017 0.8780
-27.4443 -11.6328 -1.5622 0.8875
-20.5850 -11.8268 -1.2442 0.9093
-20.2594 -15.1489 -1.3258 0.9036
-23.4772 -22.4313 -1.7017 0.8780
-20.6088 -25.0922 -1.7017 0.8780
-6.6527 -10.4471 -0.6491 0.9516
-14.0201 -29.2878 -1.7017 0.8780
-10.3957 -30.7615 -1.7017 0.8780
-6.6205 -31.7885 -1.7017 0.8780
-2.5030 -29.4603 -1.5495 0.8883
1.0585 -29.5475 -1.5495 0.8883
1.8035 -11.4384 -0.6069 0.9547
8.0842 -28.4398 -1.5495 0.8883
11.4462 -27.2610 -1.5495 0.8883
14.6418 -25.6864 -1.5495 0.8883
17.6251 -23.7389 -1.5495 0.8883
11.8373 -12.4737 -0.9012 0.9334
15.1227 -12.5067 -1.0285 0.9244
19.5500 -12.5427 -1.2173 0.9112
20.6932 -9.9923 -1.2043 0.9121
28.1155 -9.6081 -1.5571 0.8878
31.7659 -6.7283 -1.7017 0.8780
32.3446 -2.8587 -1.7017 0.8780
30.4834 0.9886 -1.5984 0.8850
29.2211 4.5057 -1.5495 0.8883
22.9496 6.4393 -1.2492 0.9089
13.9520 5.8024 -0.7919 0.9413
10.8758 6.1506 -0.6548 0.9512
8.2798 6.1039 -0.5391 0.9596
6.5342 6.1589 -0.4706 0.9647
5.1320 6.1628 -0.4203 0.9684
4.3432 6.7192 -0.4193 0.9685
4.7530 9.7581 -0.5688 0.9575
4.0130 11.6141 -0.6440 0.9520
2.5175 11.6899 -0.6267 0.9532
2.9684 32.3347 -1.7017 0.8780
-0.5692 19.6095 -1.0281 0.9244
-4.8391 32.1080 -1.7017 0.8780
-8.6659 31.2929 -1.7017 0.8780
-6.9625 16.9030 -0.9581 0.9294
-8.4178 15.0031 -0.9016 0.9334
-19.1790 26.2013 -1.7017 0.8780
-22.1771 23.6896 -1.7006 0.8781
-22.6557 18.9972 -1.5495 0.8883
-24.7762 16.1343 -1.5495 0.8883
-25.3200 12.4392 -1.4785 0.8932
-26.0117 9.0867 -1.4440 0.8955
-27.5047 6.0212 -1.4756 0.8933
-29.4333 2.8030 -1.5495 0.8883
-32.4600 -0.8320 -1.7017 0.8780
-32.1242 -4.7302 -1.7017 0.8780
-31.3221 -8.5598 -1.7017 0.8780
-27.5108 -11.2229 -1.5571 0.8878
-21.0619 -11.7232 -1.2633 0.9080
-20.2657 -14.7287 -1.3129 0.9045
-23.7796 -22.1105 -1.7017 0.8780
-20.9475 -24.8102 -1.7017 0.8780
-6.7131 -10.2327 -0.6414 0.9522
-6.5992 -13.3179 -0.7789 0.9422
-10.8126 -30.6175 -1.7017 0.8780
-7.0514 -31.6957 -1.7017 0.8780
-2.9028 -29.4236 -1.5495 0.8883
0.6573 -29.5592 -1.5495 0.8883
4.2079 -29.2655 -1.5495 0.8883
7.6972 -28.5470 -1.5495 0.8883
11.0749 -27.4139 -1.5495 0.8883
14.2918 -25.8828 -1.5495 0.8883
17.3012 -23.9759 -1.5495 0.8883
21.6401 -23.4326 -1.6716 0.8801
12.9044 -10.9707 -0.8877 0.9344
15.1026 -9.9816 -0.9487 0.9301
20.0538 -10.0217 -1.1749 0.9141
27.9825 -9.9889 -1.5571 0.8878
31.6716 -7.1589 -1.7017 0.8780
32.3028 -3.2975 -1.7017 0.8780
32.4359 0.6110 -1.7002 0.8781
29.2796 4.1084 -1.5495 0.8883
23.0878 6.1413 -1.2521 0.9087
13.9514 5.5812 -0.7875 0.9416
11.2270 6.1497 -0.6709 0.9500
8.5188 6.1033 -0.5492 0.9589
6.6878 6.1342 -0.4756 0.9643
5.2751 6.1624 -0.4251 0.9680
4.1882 6.2904 -0.3961 0.9702
4.8557 9.6346 -0.5654 0.9577
4.0116 11.1187 -0.6195 0.9538
2.5154 10.9552 -0.5891 0.9560
3.1026 29.4032 -1.5495 0.8883
-0.3069 19.8703 -1.0415 0.9235
-4.4028 32.1707 -1.7017 0.8780
-8.2403 31.4076 -1.7017 0.8780
-6.9458 17.5346 -0.9884 0.9272
-8.1458 14.9921 -0.8942 0.9339
-18.8213 26.4594 -1.7017 0.8780
-21.8672 24.0035 -1.7017 0.8780
-22.6111 19.4887 -1.5644 0.8873
-24.5549 16.4692 -1.5495 0.8883
-25.3174 12.8678 -1.4884 0.8925
-25.8779 9.4363 -1.4436 0.8955
-27.0736 6.3132 -1.4569 0.8946
-29.3925 3.2023 -1.5495 0.8883
16.7746 -9.4818 -1.6858 0.9255
17.9611 -7.4651 -1.7017 0.9249
18.7286 -5.2506 -1.7017 0.9249
19.2241 -2.9598 -1.7017 0.9249
19.4406 -0.6261 -1.7017 0.9249
17.6419 1.5632 -1.5495 0.9314
17.3258 3.6737 -1.5495 0.9314
16.7581 5.7310 -1.5495 0.9314
12.2051 5.8970 -1.1859 0.9470
9.2775 5.9551 -0.9645 0.9567
2.0370 1.6854 -0.2313 0.9894
4.9908 5.2614 -0.6345 0.9713
4.4664 6.0185 -0.6557 0.9704
5.0551 8.8727 -0.8934 0.9598
4.1607 9.9155 -0.9408 0.9577
2.9611 10.4257 -0.9482 0.9574
2.7545 17.4955 -1.5495 0.9314
0.6302 17.6998 -1.5495 0.9314
-0.8519 10.0001 -0.8781 0.9605
-3.6149 17.3382 -1.5495 0.9314
-6.2314 18.4255 -1.7017 0.9249
-7.1176 14.8600 -1.4415 0.9360
-10.4512 16.4043 -1.7017 0.9249
-12.3484 15.0281 -1.7017 0.9249
-14.0663 13.4338 -1.7017 0.9249
-15.5800 11.6444 -1.7017 0.9249
-16.8674 9.6859 -1.7017 0.9249
-17.9100 7.5868 -1.7017 0.9249
-18.6925 5.3776 -1.7017 0.9249
-19.2036 3.0903 -1.7017 0.9249
-19.4359 0.7581 -1.7017 0.9249
-19.3860 -1.5851 -1.7017 0.9249
-19.0546 -3.9053 -1.7017 0.9249
-18.4465 -6.1688 -1.7017 0.9249
-17.5706 -8.3427 -1.7017 0.9249
-16.4396 -10.3955 -1.7017 0.9249
-15.0699 -12.2974 -1.7017 0.9249
-13.4814 -14.0207 -1.7017 0.9249
-7.3898 -9.8178 -1.0751 0.9519
-6.4818 -11.1994 -1.1321 0.9494
-7.6476 -17.8841 -1.7017 0.9249
-5.4410 -18.6741 -1.7017 0.9249
-3.1554 -19.1930 -1.7017 0.9249
-0.8240 -19.4332 -1.7017 0.9249
1.5193 -19.3912 -1.7017 0.9249
3.8406 -19.0677 -1.7017 0.9249
3.6189 -10.9448 -1.0085 0.9548
8.2830 -17.5989 -1.7017 0.9249
10.3396 -16.4748 -1.7017 0.9249
10.1552 -12.5314 -1.4112 0.9373
10.2233 -9.8972 -1.2449 0.9445
14.1836 -10.7516 -1.5571 0.9310
16.2674 -9.4888 -1.6476 0.9272
17.8581 -7.7083 -1.7017 0.9249
18.6556 -5.5044 -1.7017 0.9249
19.1822 -3.2206 -1.7017 0.9249
19.4303 -0.8900 -1.7017 0.9249
17.6615 1.3235 -1.5495 0.9314
17.3741 3.4381 -1.5495 0.9314
16.8344 5.5029 -1.5495 0.9314
12.6378 5.8958 -1.2201 0.9455
9.4794 5.9045 -0.9771 0.9561
2.0757 1.6704 -0.2331 0.9894
5.9279 6.0818 -0.7430 0.9665
4.7055 6.1639 -0.6784 0.9693
5.0543 8.5978 -0.8726 0.9607
4.3197 9.9151 -0.9462 0.9575
3.1145 10.4253 -0.9519 0.9573
2.9918 17.4565 -1.5495 0.9314
0.8705 17.6896 -1.5495 0.9314
-0.7131 9.9696 -0.8745 0.9607
-2.9520 15.1878 -1.3536 0.9398
-5.9806 18.5084 -1.7017 0.9249
-6.9779 15.0909 -1.4546 0.9354
-10.2275 16.5446 -1.7017 0.9249
-12.1432 15.1944 -1.7017 0.9249
-13.8826 13.6235 -1.7017 0.9249
-15.4205 11.8549 -1.7017 0.9249
-16.7344 9.9141 -1.7017 0.9249
-17.8053 7.8293 -1.7017 0.9249
-18.6178 5.6309 -1.7017 0.9249
-19.1599 3.3507 -1.7017 0.9249
-19.4238 1.0219 -1.7017 0.9249
-19.4057 -1.3218 -1.7017 0.9249
-19.1058 -3.6462 -1.7017 0.9249
-18.5286 -5.9178 -1.7017 0.9249
-17.6823 -8.1034 -1.7017 0.9249
-16.5793 -10.1713 -1.7017 0.9249
-15.2355 -12.0916 -1.7017 0.9249
-13.6706 -13.8363 -1.7017 0.9249
-7.6032 -9.8208 -1.0866 0.9514
-6.4807 -10.8548 -1.1061 0.9505
-7.8897 -17.7786 -1.7017 0.9249
-5.6941 -18.5985 -1.7017 0.9249
-3.4158 -19.1484 -1.7017 0.9249
-1.0878 -19.4202 -1.7017 0.9249
1.2559 -19.4101 -1.7017 0.9249
3.5814 -19.1181 -1.7017 0.9249
5.8548 -18.5486 -1.7017 0.9249
8.0433 -17.7097 -1.7017 0.9249
10.1150 -16.6137 -1.7017 0.9249
12.0398 -15.2765 -1.7017 0.9249
12.6182 -12.5520 -1.5571 0.9310
14.0363 -10.9432 -1.5571 0.9310
15.7826 -9.4955 -1.6114 0.9287
17.7518 -7.9500 -1.7017 0.9249
18.5791 -5.7572 -1.7017 0.9249
19.1367 -3.4808 -1.7017 0.9249
19.4164 -1.1538 -1.7017 0.9249
17.6778 1.0835 -1.5495 0.9314
17.4192 3.2019 -1.5495 0.9314
16.9076 5.2738 -1.5495 0.9314
13.0964 5.8945 -1.2565 0.9440
9.7713 5.9037 -0.9988 0.9552
7.5464 5.9060 -0.8384 0.9623
6.0100 6.0008 -0.7430 0.9665
4.8391 6.1636 -0.6856 0.9690
5.0536 8.3354 -0.8528 0.9616
4.4807 9.9146 -0.9519 0.9573
3.2692 10.4249 -0.9559 0.9571
2.7176 14.6584 -1.3043 0.9419
1.1106 17.6761 -1.5495 0.9314
-0.5808 10.0330 -0.8792 0.9605
-2.7386 15.1887 -1.3503 0.9399
-5.7288 18.5879 -1.7017 0.9249
-6.9286 15.5348 -1.4882 0.9340
-10.0019 16.6820 -1.7017 0.9249
-11.9358 15.3579 -1.7017 0.9249
-13.6963 13.8108 -1.7017 0.9249
-15.2581 12.0631 -1.7017 0.9249
-16.5982 10.1404 -1.7017 0.9249
-17.6974 8.0704 -1.7017 0.9249
-18.5396 5.8832 -1.7017 0.9249
-19.1126 3.6106 -1.7017 0.9249
-19.4081 1.2856 -1.7017 0.9249
-19.4219 -1.0581 -1.7017 0.9249
-19.1536 -3.3864 -1.7017 0.9249
-18.6072 -5.6656 -1.7017 0.9249
-17.7907 -7.8625 -1.7017 0.9249
-16.7159 -9.9452 -1.7017 0.9249
-15.3983 -11.8836 -1.7017 0.9249
-13.8572 -13.6494 -1.7017 0.9249
-7.8375 -9.8444 -1.1009 0.9507
-6.4807 -10.5273 -1.0816 0.9516
-6.4807 -14.0845 -1.3564 0.9396
-5.9461 -18.5195 -1.7017 0.9249
-3.6755 -19.1002 -1.7017 0.9249
-1.3514 -19.4037 -1.7017 0.9249
0.9922 -19.4253 -1.7017 0.9249
3.3214 -19.1650 -1.7017 0.9249
5.6024 -18.6263 -1.7017 0.9249
7.8021 -17.8173 -1.7017 0.9249
9.8885 -16.7495 -1.7017 0.9249
11.8312 -15.4386 -1.7017 0.9249
12.4466 -12.7222 -1.5571 0.9310
13.8864 -11.1328 -1.5571 0.9310
15.3183 -9.5019 -1.5771 0.9302
17.6422 -8.1903 -1.7017 0.9249
18.4992 -6.0089 -1.7017 0.9249
19.0877 -3.7403 -1.7017 0.9249
19.3990 -1.4173 -1.7017 0.9249
19.3509 0.9225 -1.6949 0.9252
17.4610 2.9651 -1.5495 0.9314
16.9776 5.0437 -1.5495 0.9314
13.5833 5.8931 -1.2954 0.9423
10.0765 5.9029 -1.0217 0.9542
7.7604 5.9055 -0.8532 0.9616
6.0909 5.9186 -0.7430 0.9665
4.2705 5.2899 -0.5948 0.9731
4.2936 6.8697 -0.7088 0.9680
4.6128 9.8484 -0.9515 0.9573
3.4253 10.4244 -0.9600 0.9569
2.7147 13.6090 -1.2141 0.9458
1.3505 17.6594 -1.5495 0.9314
-0.7833 17.6937 -1.5495 0.9314
-2.9058 17.4710 -1.5495 0.9314
-5.4758 18.6640 -1.7017 0.9249
-7.6809 17.8699 -1.7017 0.9249
-8.7965 15.1337 -1.5314 0.9321
-11.7262 15.5185 -1.7017 0.9249
-13.5076 13.9955 -1.7017 0.9249
-15.0928 12.2692 -1.7017 0.9249
-16.4590 10.3649 -1.7017 0.9249
-17.5862 8.3099 -1.7017 0.9249
-18.4580 6.1344 -1.7017 0.9249
-19.0618 3.8698 -1.7017 0.9249
-19.3889 1.5490 -1.7017 0.9249
-19.4344 -0.7943 -1.7017 0.9249
-19.1978 -3.1261 -1.7017 0.9249
-18.6824 -5.4124 -1.7017 0.9249
-17.8958 -7.6202 -1.7017 0.9249
-16.8494 -9.7174 -1.7017 0.9249
-15.5583 -11.6734 -1.7017 0.9249
-14.0413 -13.4600 -1.7017 0.9249
-8.1582 -9.9664 -1.1268 0.9496
-6.5353 -10.3001 -1.0672 0.9522
-6.4807 -13.5953 -1.3177 0.9413
-6.1970 -18.4371 -1.7017 0.9249
-3.9345 -19.0486 -1.7017 0.9249
-1.6148 -19.3835 -1.7017 0.9249
0.7283 -19.4370 -1.7017 0.9249
1.8072 -11.3410 -1.0047 0.9549
3.5662 -12.4680 -1.1345 0.9493
5.2504 -12.4474 -1.1819 0.9472
9.6601 -16.8822 -1.7017 0.9249
11.6205 -15.5978 -1.7017 0.9249
11.8431 -12.4388 -1.5026 0.9334
13.7340 -11.3203 -1.5571 0.9310
14.9959 -9.5863 -1.5571 0.9310
17.5293 -8.4291 -1.7017 0.9249
18.4159 -6.2596 -1.7017 0.9249
19.0351 -3.9991 -1.7017 0.9249
19.3779 -1.6806 -1.7017 0.9249
19.4122 0.6614 -1.6993 0.9250
17.4997 2.7277 -1.5495 0.9314
17.0446 4.8127 -1.5495 0.9314
13.9174 5.8148 -1.3196 0.9412
10.3962 5.9020 -1.0459 0.9531
7.9823 5.9048 -0.8687 0.9609
6.2493 5.9097 -0.7525 0.9661
4.3867 5.2854 -0.6009 0.9728
4.2930 6.6657 -0.6937 0.9687
4.7165 9.7238 -0.9455 0.9575
4.0132 11.6767 -1.0802 0.9516
2.5177 11.7850 -1.0543 0.9528
1.5902 17.6395 -1.5495 0.9314
-0.5430 17.7027 -1.5495 0.9314
-2.6683 17.5088 -1.5495 0.9314
-5.2219 18.7366 -1.7017 0.9249
-7.4376 17.9725 -1.7017 0.9249
-8.5935 15.2576 -1.5320 0.9321
-11.5143 15.6763 -1.7017 0.9249
-13.3163 14.1776 -1.7017 0.9249
-14.9249 12.4730 -1.7017 0.9249
-16.3167 10.5874 -1.7017 0.9249
-17.4717 8.5480 -1.7017 0.9249
-18.3730 6.3845 -1.7017 0.9249
-19.0075 4.1282 -1.7017 0.9249
-19.3661 1.8121 -1.7017 0.9249
-19.4434 -0.5303 -1.7017 0.9249
-19.2385 -2.8651 -1.7017 0.9249
-18.7542 -5.1583 -1.7017 0.9249
-17.9976 -7.3765 -1.7017 0.9249
-16.9798 -9.4877 -1.7017 0.9249
-15.7153 -11.4611 -1.7017 0.9249
-14.2227 -13.2681 -1.7017 0.9249
-12.5236 -14.8824 -1.7017 0.9249
-6.6070 -10.1070 -1.0564 0.9527
-6.5143 -13.2012 -1.2879 0.9426
-6.4468 -18.3512 -1.7017 0.9249
-4.1928 -18.9934 -1.7017 0.9249
-1.8778 -19.3598 -1.7017 0.9249
0.4643 -19.4451 -1.7017 0.9249
1.6496 -11.3409 -1.0026 0.9550
5.0945 -18.7716 -1.7017 0.9249
7.3154 -18.0226 -1.7017 0.9249
6.9015 -12.4505 -1.2454 0.9444
11.4076 -15.7542 -1.7017 0.9249
13.2197 -14.2677 -1.7017 0.9249
11.8020 -10.0000 -1.3534 0.9398
14.8643 -9.7890 -1.5571 0.9310
17.4132 -8.6664 -1.7017 0.9249
18.3292 -6.5091 -1.7017 0.9249
18.9790 -4.2572 -1.7017 0.9249
19.3533 -1.9436 -1.7017 0.9249
19.4466 0.3983 -1.7017 0.9249
17.5351 2.4899 -1.5495 0.9314
17.1083 4.5808 -1.5495 0.9314
13.9168 5.5939 -1.3122 0.9416
10.7313 5.9010 -1.0715 0.9520
8.2123 5.9042 -0.8849 0.9602
6.4212 5.9092 -0.7635 0.9656
4.5081 5.2839 -0.6077 0.9725
4.1882 6.3130 -0.6628 0.9700
4.8189 9.6007 -0.9398 0.9578
4.0118 11.1764 -1.0389 0.9534
2.5157 11.0394 -0.9906 0.9556
1.8295 17.6162 -1.5495 0.9314
-0.3025 17.7084 -1.5495 0.9314
-2.4303 17.5435 -1.5495 0.9314
-4.9670 18.8058 -1.7017 0.9249
-7.1928 18.0718 -1.7017 0.9249
-8.0642 14.7839 -1.4733 0.9346
-11.3004 15.8313 -1.7017 0.9249
-13.1225 14.3571 -1.7017 0.9249
-14.7541 12.6746 -1.7017 0.9249
-16.1714 10.8080 -1.7017 0.9249
-17.3540 8.7844 -1.7017 0.9249
-18.2846 6.6334 -1.7017 0.9249
-18.9497 4.3860 -1.7017 0.9249
-19.3397 2.0749 -1.7017 0.9249
-19.4488 -0.2663 -1.7017 0.9249
-19.2756 -2.6036 -1.7017 0.9249
-18.8225 -4.9031 -1.7017 0.9249
-18.0961 -7.1315 -1.7017 0.9249
-17.1070 -9.2562 -1.7017 0.9249
-15.8695 -11.2466 -1.7017 0.9249
-14.4016 -13.0737 -1.7017 0.9249
-12.7246 -14.7110 -1.7017 0.9249
-6.7211 -9.9830 -1.0529 0.9528
-6.5142 -12.7614 -1.2535 0.9441
-6.6954 -18.2620 -1.7017 0.9249
-4.4503 -18.9347 -1.7017 0.9249
-2.1405 -19.3325 -1.7017 0.9249
0.2002 -19.4496 -1.7017 0.9249
2.5382 -19.2843 -1.7017 0.9249
4.8392 -18.8391 -1.7017 0.9249
4.6726 -11.9758 -1.1247 0.9497
5.3075 -9.8891 -0.9819 0.9559
6.9596 -9.8914 -1.0581 0.9526
8.9952 -9.9767 -1.1752 0.9475
12.7509 -11.1050 -1.4793 0.9344
14.7300 -9.9900 -1.5571 0.9310
17.2940 -8.9020 -1.7017 0.9249
18.2392 -6.7573 -1.7017 0.9249
18.9195 -4.5146 -1.7017 0.9249
19.3251 -2.2062 -1.7017 0.9249
19.4502 0.1342 -1.7017 0.9249
17.5673 2.2515 -1.5495 0.9314
17.1690 4.3481 -1.5495 0.9314
13.9190 5.3763 -1.3054 0.9418
11.0834 5.9001 -1.0985 0.9508
8.4512 5.9035 -0.9019 0.9595
1.9976 1.7888 -0.2346 0.9893
4.6322 5.2824 -0.6147 0.9722
4.1877 6.1299 -0.6495 0.9706
4.9201 9.4791 -0.9344 0.9580
4.0877 10.9196 -1.0201 0.9543
2.5255 10.4270 -0.9386 0.9578
2.0686 17.5898 -1.5495 0.9314
-0.0621 17.7109 -1.5495 0.9314
-2.1918 17.5748 -1.5495 0.9314
-4.7112 18.8715 -1.7017 0.9249
-6.9468 18.1678 -1.7017 0.9249
-7.7501 14.6788 -1.4522 0.9355
-11.0844 15.9832 -1.7017 0.9249
-12.9264 14.5340 -1.7017 0.9249
-14.5806 12.8737 -1.7017 0.9249
-16.0232 11.0265 -1.7017 0.9249
-17.2332 9.0192 -1.7017 0.9249
-18.1928 6.8810 -1.7017 0.9249
-18.8884 4.6429 -1.7017 0.9249
-19.3097 2.3374 -1.7017 0.9249
-19.4507 -0.0022 -1.7017 0.9249
-19.3092 -2.3417 -1.7017 0.9249
-18.8874 -4.6471 -1.7017 0.9249
-18.1913 -6.8851 -1.7017 0.9249
-17.2311 -9.0231 -1.7017 0.9249
-16.0208 -11.0301 -1.7017 0.9249
-14.5778 -12.8770 -1.7017 0.9249
-12.9231 -14.5369 -1.7017 0.9249
-6.8678 -9.9077 -1.0547 0.9527
-6.4910 -12.3005 -1.2168 0.9457
-6.9428 -18.1694 -1.7017 0.9249
-4.7070 -18.8725 -1.7017 0.9249
-2.4029 -19.3017 -1.7017 0.9249
-0.0639 -19.4506 -1.7017 0.9249
2.2761 -19.3170 -1.7017 0.9249
4.5830 -18.9030 -1.7017 0.9249
3.7169 -9.9222 -0.9270 0.9583
5.1813 -9.9768 -0.9835 0.9559
8.5261 -12.4741 -1.3219 0.9411
12.8274 -14.6214 -1.7017 0.9249
13.2616 -11.8703 -1.5571 0.9310
7.4169 -5.1786 -0.7914 0.9643
17.1715 -9.1361 -1.7017 0.9249
18.1457 -7.0044 -1.7017 0.9249
18.8564 -4.7711 -1.7017 0.9249
19.2934 -2.4684 -1.7017 0.9249
19.4502 -0.1299 -1.7017 0.9249
14.2621 1.6314 -1.2559 0.9440
17.2264 4.1146 -1.5495 0.9314
14.2482 5.2824 -1.3295 0.9408
11.4538 5.8990 -1.1272 0.9496
8.6995 5.9028 -0.9198 0.9587
1.9974 1.7404 -0.2318 0.9894
4.7592 5.2809 -0.6220 0.9719
4.2331 6.0191 -0.6438 0.9709
5.0202 9.3588 -0.9291 0.9583
4.1038 10.5248 -0.9883 0.9557
2.6758 10.4265 -0.9418 0.9577
2.3073 17.5601 -1.5495 0.9314
0.1784 17.7101 -1.5495 0.9314
-1.9531 17.6030 -1.5495 0.9314
-4.4545 18.9337 -1.7017 0.9249
-6.6995 18.2605 -1.7017 0.9249
-7.5092 14.7026 -1.4444 0.9359
-10.8664 16.1323 -1.7017 0.9249
-12.7278 14.7082 -1.7017 0.9249
-14.4045 13.0706 -1.7017 0.9249
-15.8720 11.2431 -1.7017 0.9249
-17.1091 9.2524 -1.7017 0.9249
-18.0977 7.1275 -1.7017 0.9249
-18.8236 4.8989 -1.7017 0.9249
-19.2762 2.5993 -1.7017 0.9249
-19.4489 0.2620 -1.7017 0.9249
-19.3392 -2.0792 -1.7017 0.9249
-18.9487 -4.3902 -1.7017 0.9249
-18.2831 -6.6374 -1.7017 0.9249
-17.3521 -8.7883 -1.7017 0.9249
-16.1691 -10.8115 -1.7017 0.9249
-14.7513 -12.6778 -1.7017 0.9249
-13.1193 -14.3601 -1.7017 0.9249
-7.0325 -9.8566 -1.0593 0.9525
-6.4778 -11.8819 -1.1840 0.9471
-7.1888 -18.0734 -1.7017 0.9249
-4.9628 -18.8069 -1.7017 0.9249
-2.6647 -19.2673 -1.7017 0.9249
-0.3279 -19.4479 -1.7017 0.9249
2.0135 -19.3462 -1.7017 0.9249
4.3259 -18.9635 -1.7017 0.9249
3.5654 -9.9260 -0.9227 0.9585
6.2890 -12.5226 -1.2260 0.9453
10.7566 -16.2057 -1.7017 0.9249
8.5036 -9.9626 -1.1459 0.9488
13.0992 -12.0493 -1.5571 0.9310
7.2861 -5.2358 -0.7850 0.9646
17.0459 -9.3684 -1.7017 0.9249
18.0489 -7.2501 -1.7017 0.9249
18.7899 -5.0266 -1.7017 0.9249
19.2581 -2.7302 -1.7017 0.9249
19.4467 -0.3940 -1.7017 0.9249
14.5275 1.4622 -1.2774 0.9431
17.2807 3.8803 -1.5495 0.9314
16.5598 5.8849 -1.5376 0.9319
11.8441 5.8980 -1.1576 0.9483
9.0393 5.9558 -0.9471 0.9575
2.0137 1.7070 -0.2310 0.9895
4.8893 5.2792 -0.6295 0.9715
4.3562 6.0188 -0.6500 0.9706
5.0558 9.1255 -0.9127 0.9590
4.1026 10.1139 -0.9549 0.9571
2.8271 10.4261 -0.9451 0.9576
2.5454 17.5271 -1.5495 0.9314
0.4189 17.7060 -1.5495 0.9314
-0.9807 10.0876 -0.8867 0.9601
-4.1970 18.9925 -1.7017 0.9249
-6.4509 18.3498 -1.7017 0.9249
-7.2903 14.7656 -1.4407 0.9360
-10.6463 16.2783 -1.7017 0.9249
-12.5269 14.8796 -1.7017 0.9249
-14.2257 13.2649 -1.7017 0.9249
-15.7179 11.4576 -1.7017 0.9249
-16.9819 9.4839 -1.7017 0.9249
-17.9993 7.3725 -1.7017 0.9249
-18.7554 5.1541 -1.7017 0.9249
-19.2391 2.8608 -1.7017 0.9249
-19.4435 0.5261 -1.7017 0.9249
-19.3657 -1.8164 -1.7017 0.9249
-19.0066 -4.1325 -1.7017 0.9249
-18.3716 -6.3885 -1.7017 0.9249
-17.4698 -8.5519 -1.7017 0.9249
-16.3144 -10.5910 -1.7017 0.9249
-14.9221 -12.4763 -1.7017 0.9249
-13.3131 -14.1806 -1.7017 0.9249
-7.2149 -9.8274 -1.0666 0.9522
-6.4834 -11.5171 -1.1563 0.9483
-7.4336 -17.9742 -1.7017 0.9249
-5.2177 -18.7378 -1.7017 0.9249
-2.9261 -19.2293 -1.7017 0.9249
-0.5920 -19.4416 -1.7017 0.9249
1.7506 -19.3717 -1.7017 0.9249
4.0679 -19.0205 -1.7017 0.9249
3.7399 -10.8735 -1.0060 0.9549
8.4925 -17.4987 -1.7017 0.9249
10.5356 -16.3502 -1.7017 0.9249
8.2838 -9.9763 -1.1345 0.9493
12.9343 -12.2260 -1.5571 0.9310
13.4613 -9.9533 -1.4647 0.9350
16.7121 -9.4826 -1.6811 0.9257
17.9488 -7.4946 -1.7017 0.9249
18.7199 -5.2813 -1.7017 0.9249
19.2192 -2.9914 -1.7017 0.9249
19.4395 -0.6580 -1.7017 0.9249
17.6444 1.5342 -1.5495 0.9314
17.3318 3.6453 -1.5495 0.9314
16.7675 5.7034 -1.5495 0.9314
12.2561 5.8968 -1.1899 0.9469
9.2872 5.9398 -0.9645 0.9567
2.0407 1.6828 -0.2314 0.9894
5.8156 6.1109 -0.7380 0.9667
4.4817 6.0184 -0.6565 0.9703
5.0550 8.8388 -0.8908 0.9599
4.1798 9.9154 -0.9414 0.9577
2.9796 10.4257 -0.9486 0.9574
2.7832 17.4909 -1.5495 0.9314
0.6593 17.6987 -1.5495 0.9314
-0.8348 9.9944 -0.8774 0.9605
-3.5865 17.3441 -1.5495 0.9314
-6.2011 18.4357 -1.7017 0.9249
-7.0952 14.8760 -1.4419 0.9360
-10.4243 16.4214 -1.7017 0.9249
-12.3237 15.0484 -1.7017 0.9249
-14.0443 13.4569 -1.7017 0.9249
-15.5609 11.6699 -1.7017 0.9249
-16.8515 9.7136 -1.7017 0.9249
-17.8975 7.6162 -1.7017 0.9249
-18.6836 5.4083 -1.7017 0.9249
-19.1985 3.1218 -1.7017 0.9249
-19.4346 0.7900 -1.7017 0.9249
-19.3885 -1.5533 -1.7017 0.9249
-19.0610 -3.8740 -1.7017 0.9249
-18.4566 -6.1385 -1.7017 0.9249
-17.5843 -8.3138 -1.7017 0.9249
-16.4567 -10.3685 -1.7017 0.9249
-15.0901 -12.2726 -1.7017 0.9249
-13.5045 -13.9985 -1.7017 0.9249
-7.4130 -9.8151 -1.0761 0.9518
-6.4794 -11.1530 -1.1285 0.9495
-7.6769 -17.8716 -1.7017 0.9249
-5.4716 -18.6652 -1.7017 0.9249
-3.1870 -19.1878 -1.7017 0.9249
-0.8560 -19.4318 -1.7017 0.9249
1.4875 -19.3937 -1.7017 0.9249
3.8093 -19.0740 -1.7017 0.9249
3.6053 -10.9643 -1.0098 0.9547
5.8690 -12.5230 -1.2100 0.9460
10.3126 -16.4918 -1.7017 0.9249
10.1692 -12.5909 -1.4160 0.9371
10.1997 -9.9069 -1.2440 0.9445
14.1659 -10.7749 -1.5571 0.9310
16.2077 -9.4897 -1.6432 0.9274
17.8454 -7.7376 -1.7017 0.9249
18.6465 -5.5350 -1.7017 0.9249
19.1769 -3.2521 -1.7017 0.9249
19.4288 -0.9219 -1.7017 0.9249
17.6636 1.2945 -1.5495 0.9314
17.3797 3.4096 -1.5495 0.9314
16.8434 5.4752 -1.5495 0.9314
12.6919 5.8956 -1.2243 0.9454
9.5141 5.9044 -0.9796 0.9560
2.0813 1.6693 -0.2334 0.9893
5.9379 6.0721 -0.7430 0.9665
4.7215 6.1639 -0.6793 0.9693
5.0542 8.5654 -0.8701 0.9609
4.3391 9.9150 -0.9469 0.9575
3.1332 10.4252 -0.9524 0.9572
3.0205 17.4515 -1.5495 0.9314
0.8995 17.6881 -1.5495 0.9314
-0.6972 9.9783 -0.8751 0.9606
-2.9261 15.1878 -1.3532 0.9398
-5.9503 18.5182 -1.7017 0.9249
-6.9477 15.0907 -1.4535 0.9355
-10.2004 16.5614 -1.7017 0.9249
-12.1182 15.2143 -1.7017 0.9249
-13.8602 13.6463 -1.7017 0.9249
-15.4010 11.8801 -1.7017 0.9249
-16.7180 9.9416 -1.7017 0.9249
-17.7924 7.8586 -1.7017 0.9249
-18.6085 5.6615 -1.7017 0.9249
-19.1543 3.3822 -1.7017 0.9249
-19.4221 1.0538 -1.7017 0.9249
-19.4078 -1.2899 -1.7017 0.9249
-19.1118 -3.6148 -1.7017 0.9249
-18.5383 -5.8873 -1.7017 0.9249
-17.6956 -8.0743 -1.7017 0.9249
-16.5960 -10.1441 -1.7017 0.9249
-15.2554 -12.0666 -1.7017 0.9249
-13.6933 -13.8138 -1.7017 0.9249
-7.6297 -9.8217 -1.0881 0.9513
-6.4807 -10.8145 -1.1030 0.9506
-7.9189 -17.7657 -1.7017 0.9249
-5.7246 -18.5892 -1.7017 0.9249
-3.4472 -19.1428 -1.7017 0.9249
-1.1198 -19.4184 -1.7017 0.9249
1.2240 -19.4121 -1.7017 0.9249
3.5499 -19.1240 -1.7017 0.9249
5.8243 -18.5582 -1.7017 0.9249
8.0142 -17.7229 -1.7017 0.9249
10.0877 -16.6303 -1.7017 0.9249
12.0147 -15.2963 -1.7017 0.9249
12.5976 -12.5727 -1.5571 0.9310
14.0183 -10.9663 -1.5571 0.9310
15.7252 -9.4963 -1.6072 0.9289
17.7387 -7.9792 -1.7017 0.9249
18.5696 -5.7877 -1.7017 0.9249
19.1309 -3.5122 -1.7017 0.9249
19.4145 -1.1856 -1.7017 0.9249
17.6796 1.0544 -1.5495 0.9314
17.4244 3.1732 -1.5495 0.9314
16.9162 5.2460 -1.5495 0.9314
13.1537 5.8943 -1.2611 0.9438
9.8075 5.9036 -1.0015 0.9551
7.5719 5.9060 -0.8401 0.9622
6.0198 5.9909 -0.7430 0.9665
4.8554 6.1635 -0.6865 0.9690
5.0535 8.3044 -0.8505 0.9617
4.5003 9.9146 -0.9526 0.9572
3.2880 10.4248 -0.9563 0.9571
2.7173 14.5228 -1.2926 0.9424
1.1397 17.6743 -1.5495 0.9314
-0.5656 10.0579 -0.8813 0.9604
-2.7204 15.2310 -1.3536 0.9398
-5.6982 18.5973 -1.7017 0.9249
-6.9286 15.6035 -1.4937 0.9337
-9.9746 16.6984 -1.7017 0.9249
-11.9105 15.3775 -1.7017 0.9249
-13.6736 13.8333 -1.7017 0.9249
-15.2382 12.0882 -1.7017 0.9249
-16.5816 10.1676 -1.7017 0.9249
-17.6841 8.0994 -1.7017 0.9249
-18.5299 5.9137 -1.7017 0.9249
-19.1066 3.6420 -1.7017 0.9249
-19.4060 1.3175 -1.7017 0.9249
-19.4236 -1.0263 -1.7017 0.9249
-19.1591 -3.3551 -1.7017 0.9249
-18.6165 -5.6351 -1.7017 0.9249
-17.8036 -7.8332 -1.7017 0.9249
-16.7322 -9.9178 -1.7017 0.9249
-15.4178 -11.8583 -1.7017 0.9249
-13.8796 -13.6266 -1.7017 0.9249
-7.8715 -9.8539 -1.1034 0.9506
-6.4895 -10.5029 -1.0801 0.9516
-6.4807 -14.0238 -1.3516 0.9399
-5.9765 -18.5097 -1.7017 0.9249
-3.7068 -19.0942 -1.7017 0.9249
-1.3833 -19.4014 -1.7017 0.9249
0.9604 -19.4269 -1.7017 0.9249
3.2899 -19.1704 -1.7017 0.9249
5.5718 -18.6355 -1.7017 0.9249
7.7728 -17.8301 -1.7017 0.9249
9.8610 -16.7657 -1.7017 0.9249
11.8059 -15.4579 -1.7017 0.9249
9.7313 -9.9796 -1.2195 0.9456
13.8681 -11.1556 -1.5571 0.9310
15.2635 -9.5026 -1.5730 0.9304
17.6287 -8.2193 -1.7017 0.9249
18.4893 -6.0393 -1.7017 0.9249
19.0815 -3.7716 -1.7017 0.9249
19.3966 -1.4492 -1.7017 0.9249
19.3585 0.8910 -1.6954 0.9251
17.4659 2.9364 -1.5495 0.9314
16.9859 5.0159 -1.5495 0.9314
13.6440 5.8930 -1.3003 0.9421
10.1145 5.9028 -1.0246 0.9541
7.7869 5.9054 -0.8550 0.9615
6.1021 5.9101 -0.7432 0.9665
4.2710 5.2727 -0.5937 0.9731
4.2935 6.8446 -0.7069 0.9681
4.6254 9.8333 -0.9507 0.9573
3.4442 10.4244 -0.9605 0.9569
2.7144 13.4916 -1.2040 0.9462
1.3795 17.6572 -1.5495 0.9314
-0.7543 17.6949 -1.5495 0.9314
-2.8772 17.4757 -1.5495 0.9314
-5.4451 18.6729 -1.7017 0.9249
-7.6515 17.8825 -1.7017 0.9249
-8.7626 15.1326 -1.5299 0.9322
-11.7007 15.5378 -1.7017 0.9249
-13.4846 14.0176 -1.7017 0.9249
-15.0727 12.2940 -1.7017 0.9249
-16.4419 10.3919 -1.7017 0.9249
-17.5725 8.3388 -1.7017 0.9249
-18.4479 6.1647 -1.7017 0.9249
-19.0554 3.9011 -1.7017 0.9249
-19.3863 1.5808 -1.7017 0.9249
-19.4357 -0.7623 -1.7017 0.9249
-19.2029 -3.0945 -1.7017 0.9249
-18.6913 -5.3817 -1.7017 0.9249
-17.9083 -7.5908 -1.7017 0.9249
-16.8653 -9.6897 -1.7017 0.9249
-15.5774 -11.6479 -1.7017 0.9249
-14.0634 -13.4368 -1.7017 0.9249
-12.3451 -15.0308 -1.7017 0.9249
-6.5437 -10.2761 -1.0658 0.9523
-6.4807 -13.5380 -1.3131 0.9415
-6.2272 -18.4269 -1.7017 0.9249
-3.9658 -19.0421 -1.7017 0.9249
-1.6467 -19.3808 -1.7017 0.9249
0.6964 -19.4382 -1.7017 0.9249
1.7881 -11.3410 -1.0045 0.9549
3.5510 -12.4922 -1.1362 0.9492
