ply
format ascii 1.0
element vertex 1561
property float32 x
property float32 y
property float32 z
property float32 I
end_header
27.1183 -26.2604 3.3026 0.8594
34.3495 -26.0410 3.7712 0.8411
44.9258 -26.2039 4.5502 0.8115
58.7614 -25.3564 5.5992 0.7734
90.2522 -26.6110 8.2321 0.6854
41.4292 -6.9444 3.6752 0.8448
41.2924 -1.8770 3.6163 0.8471
90.4059 17.9382 8.0637 0.6907
45.7633 14.9892 4.2131 0.8242
27.3043 12.7602 2.6368 0.8860
21.1476 13.1945 2.1808 0.9048
16.3839 13.2077 1.8412 0.9190
12.9309 13.2909 1.6223 0.9282
10.2652 13.4747 1.4820 0.9342
7.8741 13.4275 1.3618 0.9394
5.8557 13.4831 1.2861 0.9427
3.9965 13.4383 1.2266 0.9453
3.2643 19.1987 1.7038 0.9248
2.8066 58.7087 5.1422 0.7898
-4.1758 57.1948 5.0172 0.7943
-30.2797 65.1902 6.2886 0.7493
-34.7607 56.0047 5.7668 0.7675
-34.8416 43.4280 4.8713 0.7997
-29.1373 28.4812 3.5647 0.8491
-29.1492 22.3144 3.2117 0.8629
-29.1634 17.1938 2.9619 0.8729
-32.0934 14.0275 3.0643 0.8688
-47.7126 -22.0259 4.5976 0.8098
-36.4731 -22.5198 3.7502 0.8419
-30.1453 -24.0693 3.3749 0.8565
-30.2877 -30.8405 3.7818 0.8407
-30.1353 -39.1751 4.3241 0.8200
-30.2949 -51.1111 5.1981 0.7878
1.7337 -25.3827 2.2259 0.9029
0.7839 -4.1013 0.3653 0.9834
8.2132 -25.6844 2.3592 0.8974
11.7865 -25.6899 2.4728 0.8927
2.4141 -3.9304 0.4035 0.9816
2.9290 -3.6861 0.4119 0.9813
33.4990 -33.0531 4.1173 0.8278
34.1192 -26.3735 3.7729 0.8410
44.2837 -26.3886 4.5100 0.8130
57.7685 -25.5728 5.5272 0.7759
55.7035 -16.9932 5.0951 0.7915
21.6323 -3.8348 1.9221 0.9156
59.1993 -3.2472 5.1871 0.7882
90.4779 17.0730 8.0555 0.6909
46.7331 14.8234 4.2894 0.8213
27.8435 12.6957 2.6773 0.8844
21.5333 13.1564 2.2077 0.9036
16.7006 13.2069 1.8628 0.9181
13.1749 13.2903 1.6373 0.9276
10.4658 13.4742 1.4927 0.9338
7.9706 13.3047 1.3569 0.9396
6.0063 13.4827 1.2913 0.9425
4.1339 13.4379 1.2300 0.9451
3.2383 18.0217 1.6019 0.9291
3.3478 58.5260 5.1287 0.7903
-3.6060 56.7017 4.9708 0.7960
-30.2752 66.8123 6.4174 0.7449
-34.2344 56.3280 5.7668 0.7675
-34.9838 44.4522 4.9490 0.7968
-29.1358 29.0186 3.5977 0.8478
-29.1480 22.7498 3.2349 0.8620
-29.1624 17.5635 2.9784 0.8722
-31.2862 14.0253 2.9996 0.8714
-45.2096 14.0238 4.1413 0.8269
-48.9872 -22.0598 4.7003 0.8060
-36.9568 -22.3429 3.7783 0.8408
-30.2679 -23.7061 3.3636 0.8570
-30.1100 -30.0903 3.7242 0.8429
-30.1883 -38.4922 4.2798 0.8217
-29.9574 -49.4785 5.0604 0.7928
1.4948 -25.3820 2.2245 0.9029
0.7459 -4.1111 0.3656 0.9834
7.8606 -25.3998 2.3262 0.8987
11.4934 -25.6832 2.4617 0.8932
2.4016 -3.9935 0.4077 0.9815
2.8334 -3.6352 0.4032 0.9817
32.8752 -33.0513 4.0785 0.8293
40.8080 -32.1591 4.5456 0.8117
41.8856 -25.4944 4.2899 0.8213
57.0119 -25.8795 5.4777 0.7777
11.9211 -3.7592 1.0936 0.9510
21.4245 -4.0053 1.9069 0.9162
39.9987 -2.5701 3.5067 0.8513
90.4754 16.1959 8.0414 0.6914
48.2848 14.8191 4.4188 0.8164
28.4730 12.6618 2.7263 0.8824
21.9255 13.1155 2.2352 0.9025
17.0251 13.2059 1.8851 0.9171
13.6011 13.4654 1.6745 0.9260
10.6693 13.4736 1.5036 0.9333
8.1407 13.3043 1.3646 0.9393
6.1582 13.4823 1.2968 0.9422
4.2720 13.4375 1.2336 0.9450
3.3835 17.8664 1.5909 0.9296
3.8994 58.5423 5.1331 0.7901
-1.4534 26.8186 2.3498 0.8978
-30.3104 68.5925 6.5609 0.7400
-33.7051 56.6463 5.7668 0.7675
-34.9814 45.3165 5.0085 0.7946
-29.1343 29.5661 3.6315 0.8465
-29.1120 23.1640 3.2549 0.8612
-29.1613 17.9374 2.9953 0.8716
-30.5120 14.0231 2.9379 0.8739
-45.1299 14.4640 4.1462 0.8267
-87.4003 6.0272 7.6647 0.7034
-49.7583 -21.8486 4.7545 0.8040
-37.7477 -22.3407 3.8375 0.8385
-30.0906 -23.1156 3.3197 0.8587
-30.1085 -29.5300 3.6896 0.8442
-30.1311 -37.6867 4.2214 0.8239
-29.9911 -48.5025 4.9891 0.7953
1.2562 -25.3814 2.2233 0.9030
0.7113 -4.1409 0.3676 0.9833
7.6003 -25.3990 2.3195 0.8990
11.2850 -25.8650 2.4689 0.8929
18.8285 -31.9841 3.2471 0.8615
2.7483 -3.5949 0.3959 0.9820
24.8414 -25.4470 3.1113 0.8669
40.2981 -32.3742 4.5225 0.8126
41.0112 -25.4920 4.2247 0.8237
55.6098 -25.8742 5.3661 0.7817
82.7892 -26.9621 7.6175 0.7050
39.1007 -2.8806 3.4301 0.8543
90.1729 15.2712 8.0014 0.6927
49.2604 14.6148 4.4954 0.8136
29.2032 12.6601 2.7847 0.8800
22.3272 13.0733 2.2636 0.9013
17.3294 13.1838 1.9050 0.9163
13.8578 13.4647 1.6905 0.9254
10.8758 13.4730 1.5149 0.9328
8.3127 13.3038 1.3725 0.9390
6.3113 13.4819 1.3024 0.9420
4.4109 13.4371 1.2373 0.9448
3.3810 16.9815 1.5148 0.9328
3.7784 49.6975 4.3605 0.8186
-2.5545 57.0211 4.9937 0.7952
-30.3055 70.3574 6.7022 0.7352
-33.1727 56.9597 5.7668 0.7675
-34.8344 46.0113 5.0490 0.7932
-29.0978 30.0879 3.6620 0.8453
-29.1108 23.6119 3.2793 0.8603
-29.1603 18.3156 3.0127 0.8709
-29.7692 14.0211 2.8789 0.8762
-45.1286 14.9313 4.1587 0.8262
-51.8075 -22.1716 4.9302 0.7975
-38.6582 -22.3931 3.9086 0.8358
-30.0894 -22.6695 3.2960 0.8596
-30.1620 -29.0330 3.6627 0.8453
-30.1291 -36.9684 4.1724 0.8257
-30.0237 -47.5533 4.9202 0.7979
1.0179 -25.3807 2.2223 0.9030
7.7168 -47.5956 4.2185 0.8240
7.3415 -25.3983 2.3130 0.8993
11.2922 -26.5577 2.5248 0.8906
18.4265 -31.9830 3.2293 0.8623
2.7060 -3.6093 0.3947 0.9821
24.3787 -25.4457 3.0830 0.8681
39.7504 -32.5516 4.4950 0.8136
40.6094 -25.7729 4.2080 0.8244
53.4786 -25.4950 5.1833 0.7883
75.5894 -25.4031 6.9767 0.7260
39.6960 -3.2987 3.4849 0.8522
95.3994 15.2382 8.4522 0.6785
51.6884 14.8096 4.7041 0.8058
30.6781 12.9593 2.9136 0.8748
22.8105 13.0707 2.3001 0.8998
17.6342 13.1567 1.9249 0.9154
14.0673 13.4144 1.7006 0.9249
11.0854 13.4724 1.5264 0.9323
8.5991 13.4793 1.3988 0.9378
6.4658 13.4814 1.3081 0.9417
4.5507 13.4367 1.2412 0.9446
3.3609 16.0915 1.4382 0.9361
4.1997 49.1413 4.3150 0.8203
-2.0220 57.0950 4.9983 0.7950
-30.2657 72.1169 6.8425 0.7305
-32.6961 57.3707 5.7772 0.7671
-34.9764 47.1099 5.1333 0.7901
-29.0962 30.6560 3.6978 0.8439
-29.1095 24.0665 3.3044 0.8593
-29.1592 18.6983 3.0306 0.8702
-29.1721 14.0754 2.8338 0.8780
-45.1272 15.4015 4.1717 0.8258
-53.0505 -22.1179 5.0286 0.7939
-39.4067 -22.3360 3.9629 0.8337
-30.2667 -22.3615 3.2923 0.8598
-30.1605 -28.4919 3.6299 0.8465
-30.3034 -36.4789 4.1490 0.8266
-30.0843 -46.6746 4.8582 0.8001
-1.6692 -18.5097 1.6260 0.9281
0.7798 -25.3801 2.2215 0.9031
7.3802 -48.3860 4.2822 0.8216
7.0841 -25.3976 2.3068 0.8995
13.2405 -31.9686 3.0273 0.8703
14.4826 -25.6914 2.5802 0.8883
2.6657 -3.6257 0.3937 0.9821
23.9243 -25.4445 3.0556 0.8692
30.5061 -25.4628 3.4764 0.8525
40.1025 -25.9814 4.1805 0.8254
52.2713 -25.5234 5.0891 0.7917
74.7709 -25.9104 6.9232 0.7278
40.2014 -3.7204 3.5322 0.8503
53.4842 14.7832 4.8547 0.8003
31.5045 12.9619 2.9805 0.8722
23.3116 13.0693 2.3382 0.8982
17.9797 13.1540 1.9491 0.9144
14.3766 13.4544 1.7227 0.9240
11.2983 13.4718 1.5383 0.9318
8.7775 13.4788 1.4072 0.9375
6.6217 13.4810 1.3140 0.9415
4.6914 13.4364 1.2451 0.9445
3.3589 15.3611 1.3757 0.9388
4.5231 47.6591 4.1884 0.8251
-1.5420 59.2346 5.1841 0.7883
-30.2604 74.0419 6.9979 0.7253
-32.1842 57.7231 5.7821 0.7669
-34.9738 48.0404 5.1988 0.7877
-29.0946 31.2354 3.7346 0.8425
-29.1132 24.5325 3.3308 0.8582
-29.1234 19.0627 3.0453 0.8696
-29.1711 14.4134 2.8467 0.8775
-39.8361 14.0139 3.6946 0.8440
-29.4001 -4.2732 2.5992 0.8876
-54.9263 -22.2979 5.1863 0.7882
-40.2865 -22.3386 4.0302 0.8311
-30.8651 -22.3598 3.3345 0.8581
-30.1040 -27.9093 3.5915 0.8480
-30.1253 -35.5808 4.0788 0.8293
-30.1487 -45.8254 4.7991 0.8023
-34.0310 -68.4704 6.6895 0.7356
0.7888 -36.9496 3.2334 0.8621
7.6005 -53.1676 4.6988 0.8060
6.8281 -25.3969 2.3008 0.8998
12.8904 -31.9676 3.0156 0.8707
14.1700 -25.6967 2.5673 0.8888
2.6255 -3.6421 0.3928 0.9821
23.6190 -25.5964 3.0471 0.8695
29.9295 -25.4612 3.4378 0.8540
39.6879 -26.2441 4.1627 0.8261
51.7331 -25.8637 5.0602 0.7928
72.5931 -25.9202 6.7438 0.7338
42.0149 -4.2857 3.6949 0.8440
33.4071 8.8977 3.0246 0.8704
32.3036 12.9381 3.0445 0.8696
23.8300 13.0679 2.3778 0.8966
18.3685 13.1760 1.9777 0.9132
14.6040 13.4127 1.7348 0.9235
11.5146 13.4712 1.5504 0.9313
8.9582 13.4783 1.4159 0.9371
6.7791 13.4806 1.3201 0.9412
4.8330 13.4360 1.2492 0.9443
3.3749 14.7697 1.3255 0.9410
5.1609 49.4469 4.3495 0.8190
-0.9981 59.9167 5.2428 0.7861
-32.3214 81.2507 7.6503 0.7039
-28.7593 52.7363 5.2553 0.7857
-34.9712 48.9951 5.2664 0.7853
-31.0224 33.9371 4.0227 0.8314
-29.1468 25.0318 3.3613 0.8570
-29.1571 19.4775 3.0677 0.8687
-29.1702 14.7546 2.8600 0.8770
-38.6656 14.0107 3.5980 0.8478
-56.7578 -22.4243 5.3392 0.7827
-41.2882 -22.3908 4.1092 0.8281
-31.7260 -22.5330 3.4045 0.8553
-30.0371 -27.3285 3.5528 0.8495
-30.1234 -34.9100 4.0341 0.8310
-30.1462 -44.8996 4.7315 0.8048
0.6473 -54.0764 4.7314 0.8048
7.2165 -54.0946 4.7746 0.8032
6.5733 -25.3962 2.2951 0.9000
12.5431 -31.9667 3.0043 0.8712
13.8604 -25.7020 2.5548 0.8894
2.5855 -3.6585 0.3919 0.9822
23.1884 -25.6070 3.0224 0.8705
29.4084 -25.4967 3.4052 0.8553
47.5149 -32.0640 5.0150 0.7944
50.6760 -25.9315 4.9803 0.7957
69.3301 -25.4900 6.4626 0.7433
62.4234 -6.9590 5.4952 0.7771
57.5134 14.7426 5.1945 0.7879
33.1810 12.9299 3.1156 0.8668
24.3661 13.0664 2.4189 0.8949
18.7725 13.2011 2.0078 0.9120
14.8807 13.4119 1.7526 0.9227
11.7343 13.4706 1.5630 0.9308
9.1072 13.4279 1.4195 0.9369
6.9378 13.4801 1.3264 0.9409
4.9755 13.4356 1.2535 0.9441
3.1947 13.4017 1.2053 0.9462
1.0306 9.0517 0.7970 0.9641
-0.4909 67.3748 5.8947 0.7630
-31.0198 58.1723 5.7678 0.7674
-34.9684 49.9750 5.3363 0.7828
-31.1658 34.7421 4.0833 0.8291
-29.1455 25.5090 3.3886 0.8560
-29.1560 19.8743 3.0871 0.8679
-29.1344 15.0812 2.8702 0.8766
-37.6496 14.0430 3.5156 0.8510
-58.0008 -22.2894 5.4362 0.7792
-42.1196 -22.3335 4.1710 0.8258
-32.1104 -22.3563 3.4231 0.8546
-30.1011 -26.8755 3.5304 0.8504
-30.1216 -34.2533 3.9907 0.8326
-30.1437 -43.9993 4.6662 0.8072
7.3948 -59.6933 5.2624 0.7854
6.3197 -25.3955 2.2896 0.9003
12.2627 -32.1345 3.0092 0.8710
13.3999 -25.4152 2.5136 0.8910
2.5457 -3.6747 0.3911 0.9822
22.7644 -25.6172 2.9983 0.8714
29.2374 -25.8322 3.4133 0.8550
46.5640 -32.0613 4.9461 0.7969
49.5351 -25.9362 4.8919 0.7989
68.4897 -25.9120 6.4066 0.7453
31.9171 -3.8612 2.8127 0.8789
63.3197 0.0162 5.5398 0.7755
59.8131 14.7362 5.3894 0.7809
38.6723 14.6539 3.6181 0.8470
24.8838 13.0453 2.4581 0.8933
19.1498 13.2000 2.0349 0.9108
15.1632 13.4111 1.7710 0.9219
11.9575 13.4700 1.5758 0.9302
9.3264 13.4773 1.4339 0.9363
7.0982 13.4797 1.3328 0.9407
5.1190 13.4352 1.2579 0.9439
3.3069 13.3177 1.2005 0.9464
1.1096 8.9949 0.7929 0.9643
0.1267 60.7754 5.3172 0.7835
-2.0660 17.3434 1.5281 0.9323
-30.4734 58.4604 5.7678 0.7674
-34.9657 50.9814 5.4085 0.7802
-31.1640 35.4022 4.1264 0.8275
-29.1442 25.9941 3.4166 0.8549
-24.2374 16.8564 2.5829 0.8882
-29.1683 15.4469 2.8876 0.8759
-36.5413 14.0210 3.4242 0.8546
-59.6521 -22.2848 5.5712 0.7744
-43.0856 -22.3308 4.2457 0.8230
-32.7581 -22.3545 3.4697 0.8528
-30.1914 -26.4519 3.5118 0.8511
-30.1749 -33.6724 3.9558 0.8340
-30.1412 -43.1235 4.6030 0.8096
2.9343 -25.6548 2.2591 0.9015
6.1358 -25.6809 2.3100 0.8994
11.9270 -32.1559 3.0006 0.8714
13.0966 -25.4143 2.5013 0.8915
2.5177 -3.7080 0.3921 0.9822
22.5978 -25.9147 3.0082 0.8710
28.8496 -25.9752 3.3963 0.8557
36.2716 -25.4788 3.8780 0.8370
47.6305 -25.5104 4.7272 0.8050
66.5830 -25.9067 6.2507 0.7506
41.4900 -5.4143 3.6607 0.8453
59.6483 -0.5437 5.2188 0.7870
90.4899 21.3963 8.1351 0.6884
40.8230 15.0329 3.8060 0.8397
25.3542 12.9906 2.4924 0.8919
19.5377 13.1990 2.0628 0.9097
15.3024 13.2807 1.7727 0.9219
12.1394 13.4195 1.5832 0.9299
9.5140 13.4768 1.4433 0.9359
7.2600 13.4792 1.3395 0.9404
5.2635 13.4348 1.2624 0.9437
3.4396 13.3173 1.2033 0.9463
1.2016 9.0429 0.7981 0.9640
0.6802 59.3637 5.1940 0.7879
-1.8938 17.2745 1.5204 0.9326
-30.2718 59.4257 5.8348 0.7651
-34.8184 51.8006 5.4606 0.7783
-31.1621 36.0761 4.1707 0.8258
-29.1428 26.4874 3.4454 0.8537
-29.1537 20.6837 3.1273 0.8663
-29.1673 15.7981 2.9021 0.8753
-35.5831 14.0372 3.3466 0.8576
-31.5292 -15.9683 3.0920 0.8677
-33.5057 -22.4074 3.5265 0.8506
-30.1900 -25.9545 3.4832 0.8523
-30.1180 -32.9819 3.9076 0.8358
-30.1439 -42.2781 4.5427 0.8118
2.6913 -25.6590 2.2572 0.9016
5.8807 -25.6751 2.3044 0.8996
11.5851 -32.1551 2.9902 0.8718
12.7961 -25.4135 2.4893 0.8920
2.4901 -3.7423 0.3933 0.9821
22.5884 -26.3993 3.0397 0.8698
28.5646 -26.2073 3.3915 0.8559
35.5554 -25.4768 3.8268 0.8389
46.5712 -25.5075 4.6456 0.8080
63.6989 -25.4743 6.0021 0.7592
41.9082 -5.8687 3.7023 0.8437
59.1648 -1.0938 5.1771 0.7885
83.9414 19.0196 7.5301 0.7078
41.4883 14.8380 3.8549 0.8378
25.8377 12.9339 2.5279 0.8905
13.4615 8.9117 1.4124 0.9372
15.5123 13.2102 1.7826 0.9214
12.4155 13.4687 1.6026 0.9291
9.7040 13.4763 1.4529 0.9355
7.4236 13.4788 1.3463 0.9401
5.4092 13.4344 1.2670 0.9435
3.5729 13.3169 1.2063 0.9461
3.1413 22.0555 1.9491 0.9144
1.2556 60.2748 5.2745 0.7850
-1.7435 17.4072 1.5306 0.9322
-30.2916 60.8685 5.9483 0.7611
-24.2386 36.8009 3.8549 0.8378
-31.0150 36.5934 4.1967 0.8248
-29.1414 26.9892 3.4750 0.8526
-29.1526 21.0960 3.1483 0.8655
-29.1663 16.1529 2.9169 0.8747
-34.6220 14.0346 3.2684 0.8607
-33.0968 8.9630 2.9996 0.8714
-44.9673 -22.2469 4.3893 0.8175
-34.1918 -22.4055 3.5764 0.8486
-30.0970 -25.3880 3.4448 0.8538
-30.1163 -32.3654 3.8679 0.8373
-30.1416 -41.4477 4.4837 0.8140
45.4531 -25.9437 2.7428 0.8109
62.7508 -26.3832 3.5675 0.7614
93.4953 -26.6175 5.0946 0.6775
59.2067 -2.1356 3.1049 0.7887
90.4775 18.8354 4.8434 0.6906
43.5370 14.7132 2.4084 0.8319
27.8947 13.3560 1.6208 0.8835
21.1054 13.4446 1.3114 0.9046
16.3775 13.4577 1.1109 0.9186
12.8593 13.4675 0.9759 0.9281
10.0675 13.4753 0.8815 0.9348
7.7348 13.4779 0.8144 0.9397
5.7063 13.4835 0.7673 0.9430
3.8743 13.4886 0.7355 0.9453
3.2676 20.3712 1.0813 0.9207
2.2492 58.5469 3.0706 0.7908
-4.9902 60.5326 3.1831 0.7840
-30.3186 63.7046 3.6974 0.7538
-32.8922 51.9023 3.2203 0.7818
-31.0113 37.9202 2.5673 0.8218
-28.1053 26.9621 2.0411 0.8556
-30.4930 22.8931 1.9983 0.8584
-29.7947 17.1918 1.8028 0.8713
-35.2074 14.9973 2.0056 0.8579
-48.3910 14.0220 2.6404 0.8173
-47.1191 -22.2900 2.7318 0.8116
-35.4460 -22.3471 2.1960 0.8455
-29.9422 -24.3701 2.0233 0.8567
-30.1132 -31.2431 2.2741 0.8405
-30.1374 -39.9470 2.6225 0.8184
-30.1659 -51.9981 3.1505 0.7860
1.9950 -25.6681 1.3493 0.9020
0.8252 -4.1082 0.2196 0.9834
8.4769 -25.6771 1.4171 0.8974
12.0809 -25.6936 1.4880 0.8925
2.4311 -3.8762 0.2398 0.9818
2.9857 -3.6860 0.2486 0.9812
33.9443 -32.8704 2.4763 0.8276
34.1184 -25.8659 2.2438 0.8424
45.4707 -26.5217 2.7588 0.8099
59.1929 -25.5426 3.3786 0.7724
90.2522 -26.6110 4.9312 0.6860
59.5017 -2.7047 3.1216 0.7877
90.4059 17.9382 4.8304 0.6913
44.7924 14.6712 2.4702 0.8280
28.7234 13.4234 1.6616 0.8807
21.5465 13.4434 1.3310 0.9033
16.6929 13.4569 1.1237 0.9177
12.9565 13.3173 0.9737 0.9283
10.2652 13.4747 0.8878 0.9344
7.8741 13.4275 0.8158 0.9396
5.8557 13.4831 0.7704 0.9428
4.0114 13.4882 0.7375 0.9452
3.3995 19.9938 1.0629 0.9220
2.7988 58.5455 3.0717 0.7908
-4.2426 58.1093 3.0535 0.7919
-30.2797 65.1901 3.7670 0.7498
-29.4051 47.3761 2.9222 0.7998
-30.8777 38.4873 2.5859 0.8207
-28.1039 27.4711 2.0596 0.8543
-29.9030 22.8915 1.9736 0.8600
-29.8214 17.5817 1.8143 0.8705
-34.0993 14.9043 1.9503 0.8615
-43.7432 13.1208 2.3934 0.8328
-47.1470 -21.7648 2.7214 0.8122
-36.1900 -22.3450 2.2290 0.8434
-29.9410 -23.9061 2.0079 0.8577
-30.1116 -30.6612 2.2522 0.8419
-30.1353 -39.1751 2.5902 0.8204
-30.2949 -51.1111 3.1138 0.7882
1.7337 -25.3827 1.3334 0.9031
0.7839 -4.1013 0.2188 0.9834
8.2123 -25.6816 1.4131 0.8976
11.7851 -25.6869 1.4811 0.8930
2.4190 -3.9384 0.2422 0.9817
2.9011 -3.6509 0.2444 0.9815
26.0653 -25.7184 1.9190 0.8636
34.1409 -26.3903 2.2615 0.8413
45.4370 -27.0759 2.7720 0.8091
57.9533 -25.6546 3.3215 0.7758
55.6962 -16.9910 3.0523 0.7920
21.4647 -3.8050 1.1425 0.9164
64.5221 -3.5391 3.3865 0.7720
90.4726 17.0720 4.8251 0.6916
45.9634 14.5793 2.5271 0.8244
29.4352 13.4215 1.6954 0.8785
22.0009 13.4421 1.3512 0.9019
17.0157 13.4560 1.1369 0.9168
13.2010 13.3166 0.9827 0.9276
10.4658 13.4742 0.8941 0.9339
7.9863 13.3311 0.8144 0.9397
6.0063 13.4827 0.7735 0.9426
4.1493 13.4879 0.7396 0.9450
3.2423 18.0443 0.9608 0.9292
3.3488 58.5441 3.0732 0.7907
-1.7144 26.9566 1.4156 0.8975
-30.2752 66.8123 3.8442 0.7454
-29.3908 48.3586 2.9657 0.7972
-30.5157 38.7749 2.5859 0.8207
-28.1024 27.9894 2.0786 0.8531
-29.3275 22.8899 1.9497 0.8616
-29.8566 17.9816 1.8266 0.8697
-32.8628 14.7321 1.8874 0.8657
-42.2855 13.1168 2.3203 0.8375
-64.3513 -3.9411 3.3788 0.7724
-48.8555 -22.0005 2.8080 0.8069
-36.9568 -22.3429 2.2633 0.8412
-29.9712 -23.4737 1.9951 0.8586
-30.1100 -30.0903 2.2309 0.8432
-30.2651 -38.5902 2.5702 0.8217
-30.1598 -49.8128 3.0518 0.7920
1.4948 -25.3820 1.3325 0.9032
0.7459 -4.1111 0.2190 0.9834
7.8606 -25.3998 1.3934 0.8990
11.4920 -25.6802 1.4745 0.8934
2.4065 -4.0017 0.2447 0.9815
2.8097 -3.6048 0.2395 0.9819
25.5894 -25.7265 1.9017 0.8647
34.1147 -26.8844 2.2763 0.8403
41.8856 -25.4944 2.5698 0.8217
57.3962 -26.0539 3.3034 0.7769
11.9196 -3.7587 0.6550 0.9512
21.3499 -3.9914 1.1383 0.9167
62.5774 -4.0209 3.2863 0.7779
90.4702 16.1949 4.8167 0.6920
47.1888 14.4827 2.5869 0.8206
30.0649 13.3697 1.7244 0.8765
22.4693 13.4408 1.3722 0.9004
17.3462 13.4550 1.1505 0.9158
13.6011 13.4654 1.0030 0.9262
10.6693 13.4736 0.9007 0.9335
8.1568 13.3306 0.8190 0.9393
6.1582 13.4823 0.7768 0.9424
4.2879 13.4875 0.7417 0.9449
3.3835 17.8664 0.9530 0.9298
3.8995 58.5426 3.0749 0.7906
-1.4484 26.7270 1.4028 0.8983
-32.3337 73.1713 4.1925 0.7258
-29.3974 49.4067 3.0130 0.7943
-30.1511 39.0592 2.5859 0.8207
-28.1010 28.5175 2.0982 0.8518
-29.1119 23.1640 1.9497 0.8616
-29.8825 18.3810 1.8386 0.8689
-31.7478 14.5911 1.8311 0.8694
-40.9145 13.1130 2.2517 0.8419
-87.5146 6.0351 4.5973 0.7037
-54.8122 -16.5417 3.0005 0.7951
-49.6489 -21.8006 2.8418 0.8048
-37.7477 -22.3407 2.2988 0.8389
-29.9699 -23.0229 1.9806 0.8595
-30.1085 -29.5300 2.2102 0.8446
-30.1311 -37.6867 2.5287 0.8243
-30.2121 -48.8599 3.0106 0.7945
1.2562 -25.3814 1.3318 0.9032
0.7113 -4.1409 0.2202 0.9833
7.6003 -25.3990 1.3894 0.8993
11.2868 -25.8693 1.4792 0.8931
18.8285 -31.9841 1.9451 0.8619
2.7499 -3.5971 0.2373 0.9820
24.8414 -25.4470 1.8637 0.8672
40.2333 -32.3220 2.7047 0.8132
41.0112 -25.4920 2.5307 0.8241
57.0544 -26.5463 3.2979 0.7772
81.6376 -26.5870 4.4996 0.7090
65.1362 -4.7987 3.4229 0.7698
90.1729 15.2712 4.7930 0.6933
48.4730 14.3812 2.6498 0.8167
30.8351 13.3676 1.7613 0.8741
22.8833 13.3989 1.3897 0.8992
17.6847 13.4541 1.1645 0.9148
13.8578 13.4647 1.0126 0.9255
10.8758 13.4730 0.9074 0.9330
8.4227 13.4798 0.8330 0.9383
6.3113 13.4819 0.7801 0.9421
4.4273 13.4871 0.7439 0.9447
3.4325 17.2399 0.9212 0.9320
4.4507 58.5410 3.0769 0.7904
-2.6520 59.1987 3.1056 0.7887
-31.7521 73.7157 4.2064 0.7251
-29.4053 50.4907 3.0621 0.7913
-29.7837 39.3400 2.5859 0.8207
-28.0995 29.0556 2.1183 0.8505
-29.1107 23.6118 1.9644 0.8606
-29.8588 18.7543 1.8479 0.8683
-33.8276 15.9326 1.9596 0.8609
-39.6220 13.1094 2.1872 0.8461
-52.1208 -22.3057 2.9712 0.7969
-38.5638 -22.3384 2.3356 0.8365
-29.9687 -22.5786 1.9665 0.8605
-30.1069 -28.9800 2.1900 0.8459
-30.1291 -36.9684 2.4994 0.8261
-30.1541 -47.7598 2.9601 0.7975
1.0179 -25.3807 1.3312 0.9033
7.6838 -47.3924 2.5162 0.8251
7.3415 -25.3983 1.3856 0.8995
11.2937 -26.5612 1.5126 0.8908
18.4265 -31.9830 1.9345 0.8626
2.7092 -3.6136 0.2367 0.9821
24.3787 -25.4457 1.8468 0.8684
31.4333 -25.7407 2.1292 0.8498
40.6141 -25.7759 2.5210 0.8247
53.5456 -25.5269 3.1087 0.7885
76.1350 -25.5865 4.2094 0.7249
42.2417 -3.5103 2.2214 0.8438
95.3994 15.2382 5.0630 0.6791
49.9169 14.3021 2.7213 0.8122
31.1689 13.1667 1.7733 0.8733
23.1452 13.2626 1.3980 0.8987
17.8946 13.3510 1.1701 0.9145
14.0673 13.4144 1.0187 0.9251
11.0854 13.4724 0.9144 0.9325
8.5991 13.4793 0.8379 0.9380
6.4658 13.4814 0.7836 0.9419
4.5507 13.4367 0.7435 0.9448
3.5981 17.2269 0.9223 0.9319
5.0029 58.5395 3.0791 0.7903
-2.1651 61.1335 3.2059 0.7827
-30.9357 73.7134 4.1896 0.7260
-29.3402 51.4822 3.1055 0.7887
-29.4137 39.6174 2.5859 0.8207
-28.0979 29.6043 2.1390 0.8492
-29.1094 24.0665 1.9794 0.8596
-29.8985 19.1724 1.8614 0.8674
-33.0166 15.9303 1.9212 0.8634
-39.3361 13.4250 2.1783 0.8466
-53.8124 -22.4356 3.0555 0.7917
-39.4066 -22.3360 2.3739 0.8341
-30.1041 -22.2414 1.9616 0.8608
-30.1054 -28.4398 2.1704 0.8471
-30.3034 -36.4789 2.4854 0.8270
-30.1514 -46.7787 2.9167 0.8002
-1.6689 -18.5064 0.9738 0.9283
0.7798 -25.3800 1.3307 0.9033
7.3802 -48.3860 2.5651 0.8220
7.0841 -25.3976 1.3818 0.8998
13.2405 -31.9686 1.8134 0.8706
14.4809 -25.6883 1.5454 0.8886
2.6687 -3.6299 0.2361 0.9821
23.9243 -25.4445 1.8304 0.8695
30.5060 -25.4628 2.0825 0.8529
39.8232 -25.8005 2.4868 0.8269
52.2713 -25.5234 3.0486 0.7922
74.9670 -25.9784 4.1581 0.7277
42.1897 -3.9044 2.2205 0.8439
52.6740 14.5592 2.8640 0.8034
31.9965 13.1644 1.8132 0.8706
23.9667 13.4366 1.4400 0.8958
18.1471 13.2764 1.1784 0.9139
14.3861 13.4633 1.0326 0.9241
11.2983 13.4718 0.9215 0.9320
8.7775 13.4788 0.8430 0.9376
6.6217 13.4810 0.7871 0.9416
4.7089 13.4863 0.7486 0.9444
3.7453 17.1282 0.9189 0.9322
5.5555 58.5379 3.0816 0.7902
-1.6207 62.2583 3.2639 0.7792
-30.2604 74.0419 4.1919 0.7259
-29.4123 52.7517 3.1653 0.7851
-29.0705 39.9315 2.5885 0.8205
-29.0946 31.2354 2.2371 0.8428
-28.6986 24.1831 1.9668 0.8604
-29.9800 19.6235 1.8778 0.8663
-32.2368 15.9281 1.8844 0.8659
-39.3350 13.8377 2.1853 0.8462
-29.5883 -4.3006 1.5669 0.8871
-54.9263 -22.2979 3.1067 0.7886
-40.2865 -22.3386 2.4142 0.8315
-30.6993 -22.2397 1.9867 0.8591
-30.1040 -27.9093 2.1514 0.8484
-30.1253 -35.5808 2.4433 0.8297
-30.3195 -46.0850 2.8910 0.8017
-34.0454 -68.4994 4.0088 0.7361
0.7888 -36.9496 1.9369 0.8624
7.5781 -53.0111 2.8064 0.8069
6.8281 -25.3969 1.3783 0.9000
12.8904 -31.9676 1.8064 0.8710
14.1683 -25.6936 1.5377 0.8891
2.6275 -3.6449 0.2355 0.9822
23.6988 -25.6829 1.8315 0.8694
29.9295 -25.4612 2.0594 0.8544
39.8492 -26.3508 2.5037 0.8258
51.3786 -25.6864 3.0104 0.7945
74.2001 -26.4940 4.1291 0.7294
64.4373 -6.5728 3.3945 0.7715
33.4041 8.8969 1.8117 0.8707
32.8625 13.1619 1.8552 0.8678
24.4997 13.4352 1.4644 0.8941
18.6827 13.4013 1.2050 0.9120
14.6582 13.4625 1.0430 0.9234
11.5146 13.4712 0.9288 0.9315
8.9582 13.4783 0.8482 0.9372
6.7791 13.4806 0.7908 0.9414
4.8510 13.4859 0.7511 0.9442
3.8775 16.9692 0.9122 0.9327
5.2351 50.1584 2.6430 0.8171
-1.0401 62.4407 3.2728 0.7787
-32.3214 81.2506 4.5827 0.7045
-28.8702 52.9397 3.1602 0.7854
-32.9082 46.1049 2.9686 0.7970
-30.7461 33.6348 2.3882 0.8332
-28.1569 24.1816 1.9451 0.8619
-29.9980 20.0392 1.8906 0.8655
-31.4862 15.9261 1.8492 0.8682
-38.6657 14.0107 2.1553 0.8481
-56.7578 -22.4243 3.1984 0.7831
-41.5095 -22.5108 2.4747 0.8277
-31.3107 -22.2380 2.0127 0.8574
-30.0371 -27.3285 2.1282 0.8499
-30.1234 -34.9100 2.4165 0.8314
-30.1462 -44.8995 2.8343 0.8052
-8.2313 -75.4414 3.9772 0.7379
0.6473 -54.0764 2.8342 0.8052
7.2165 -54.0946 2.8601 0.8036
6.5733 -25.3962 1.3748 0.9003
12.5431 -31.9667 1.7997 0.8715
13.8588 -25.6989 1.5302 0.8896
2.5852 -3.6580 0.2347 0.9822
23.2922 -25.7217 1.8186 0.8702
29.4084 -25.4967 2.0399 0.8556
39.8247 -26.8745 2.5179 0.8249
51.1498 -26.1739 3.0112 0.7944
69.5517 -25.5714 3.8836 0.7432
56.8179 14.5643 3.0740 0.7906
38.1017 14.8474 2.1431 0.8489
25.0509 13.4336 1.4897 0.8924
19.0558 13.4003 1.2209 0.9109
14.9360 13.4617 1.0538 0.9226
11.7343 13.4706 0.9363 0.9309
9.1072 13.4279 0.8503 0.9371
6.9378 13.4801 0.7945 0.9411
4.9940 13.4855 0.7536 0.9440
3.2175 13.4974 0.7272 0.9459
1.0061 8.8369 0.4661 0.9650
-0.5026 68.9820 3.6153 0.7586
-30.7970 57.7544 3.4302 0.7694
-32.9406 47.0769 3.0112 0.7944
-30.7443 34.2723 2.4129 0.8316
-28.1118 24.6043 1.9579 0.8610
-30.0214 20.4643 1.9041 0.8646
-31.0499 16.0727 1.8323 0.8693
-37.9641 14.1603 2.1235 0.8502
-58.0008 -22.2894 3.2564 0.7797
-42.1196 -22.3335 2.4985 0.8262
-31.8931 -22.2051 2.0367 0.8558
-30.1011 -26.8755 2.1148 0.8508
-30.1216 -34.2533 2.3905 0.8330
-30.1882 -44.0643 2.7993 0.8074
7.3141 -59.0422 3.1179 0.7880
6.3197 -25.3955 1.3715 0.9005
12.2627 -32.1345 1.8026 0.8713
13.3999 -25.4152 1.5057 0.8913
2.5502 -3.6812 0.2347 0.9822
22.8483 -25.7116 1.8027 0.8713
29.1344 -25.7413 2.0375 0.8558
37.4020 -25.7529 2.3799 0.8337
51.1344 -26.7736 3.0250 0.7936
68.8158 -26.0354 3.8560 0.7447
31.9129 -3.8607 1.6847 0.8792
83.0775 0.0213 4.3539 0.7169
59.4152 14.6382 3.2069 0.7826
39.1334 14.8286 2.1932 0.8457
25.6215 13.4320 1.5161 0.8906
19.4388 13.3992 1.2373 0.9098
15.2195 13.4609 1.0648 0.9218
11.9575 13.4700 0.9440 0.9304
9.3264 13.4773 0.8589 0.9365
7.0982 13.4797 0.7984 0.9408
5.1380 13.4851 0.7563 0.9438
3.3135 13.3440 0.7206 0.9464
1.1096 8.9948 0.4750 0.9643
0.1439 69.0471 3.6186 0.7584
-2.0641 17.3274 0.9145 0.9325
-30.3338 58.1927 3.4392 0.7689
-32.9031 47.9740 3.0487 0.7921
-30.7425 34.9234 2.4384 0.8300
-28.1105 25.0722 1.9741 0.8600
-24.2337 16.8538 1.5470 0.8885
-31.0489 16.4429 1.8413 0.8687
-37.9630 14.5665 2.1310 0.8497
-59.6521 -22.2848 3.3373 0.7749
-43.0856 -22.3308 2.5433 0.8233
-32.5365 -22.2033 2.0644 0.8540
-30.0997 -26.3716 2.0973 0.8519
-30.1198 -33.6109 2.3653 0.8346
-30.1412 -43.1235 2.7573 0.8100
2.9340 -25.6521 1.3531 0.9017
6.1352 -25.6781 1.3836 0.8997
11.9604 -32.2460 1.8024 0.8713
13.0966 -25.4143 1.4984 0.8918
2.5195 -3.7107 0.2351 0.9822
22.7111 -26.0446 1.8110 0.8707
28.5756 -25.7285 2.0152 0.8573
36.2716 -25.4788 2.3230 0.8373
47.6305 -25.5104 2.8316 0.8054
68.4704 -26.6411 3.8504 0.7451
62.8111 -0.5725 3.2919 0.7776
90.4525 21.3875 4.8711 0.6891
40.0826 14.7603 2.2385 0.8427
26.2127 13.4304 1.5436 0.8887
19.8325 13.3981 1.2543 0.9086
15.5091 13.4601 1.0762 0.9210
12.1394 13.4195 0.9484 0.9301
9.5140 13.4768 0.8646 0.9361
7.2600 13.4792 0.8024 0.9405
5.2831 13.4847 0.7590 0.9436
3.4464 13.3437 0.7223 0.9463
1.2016 9.0427 0.4781 0.9641
0.8093 70.6282 3.7017 0.7536
-1.8965 17.2994 0.9121 0.9327
-30.3301 59.5401 3.5019 0.7652
-32.9352 48.9990 3.0941 0.7894
-30.7407 35.5882 2.4646 0.8283
-28.1092 25.5479 1.9907 0.8589
-30.0796 21.3405 1.9328 0.8627
-31.0479 16.8167 1.8505 0.8681
-37.9619 14.9756 2.1387 0.8492
-54.0028 14.0830 2.9248 0.7997
-44.2961 -22.4342 2.6022 0.8196
-33.4238 -22.3527 2.1073 0.8512
-29.9461 -25.7448 2.0696 0.8537
-30.1180 -32.9819 2.3408 0.8362
-30.1439 -42.2781 2.7212 0.8122
-10.3841 -75.4368 3.9907 0.7371
2.6911 -25.6562 1.3520 0.9018
5.8801 -25.6723 1.3803 0.8999
11.6150 -32.2382 1.7958 0.8717
12.7961 -25.4135 1.4912 0.8923
2.4919 -3.7452 0.2358 0.9821
22.7137 -26.5457 1.8310 0.8694
28.4205 -26.0751 2.0214 0.8569
35.5554 -25.4768 2.2923 0.8393
46.5712 -25.5075 2.7828 0.8084
63.9024 -25.5557 3.6069 0.7591
62.0293 -1.1467 3.2514 0.7800
90.1872 20.4348 4.8463 0.6905
41.1578 14.7198 2.2908 0.8394
26.8261 13.4287 1.5722 0.8868
13.4562 8.9081 0.8457 0.9374
15.8049 13.4593 1.0879 0.9202
12.4155 13.4687 0.9600 0.9293
9.7040 13.4763 0.8703 0.9356
7.4236 13.4788 0.8064 0.9402
5.4293 13.4843 0.7618 0.9434
3.5800 13.3433 0.7240 0.9462
3.2749 22.9934 1.2172 0.9112
1.4832 71.2023 3.7324 0.7518
-1.7476 17.4480 0.9190 0.9322
-30.3263 60.9383 3.5673 0.7614
-24.2359 36.7968 2.3091 0.8382
-30.7388 36.2675 2.4915 0.8266
-28.1079 26.0320 2.0078 0.8577
-30.0498 21.7453 1.9439 0.8619
-29.7392 16.4701 1.7816 0.8727
-37.9607 15.3880 2.1467 0.8487
-33.0922 8.9617 1.7968 0.8717
-87.3932 12.6562 4.6279 0.7021
-86.4841 -19.1700 4.6424 0.7013
-45.0384 -22.2821 2.6334 0.8177
-34.1083 -22.3508 2.1371 0.8493
-29.9447 -25.2595 2.0531 0.8548
-30.1163 -32.3654 2.3169 0.8377
-30.2261 -41.5639 2.6934 0.8140
45.5434 -25.9952 0.9153 0.8108
62.6847 -26.3554 1.1869 0.7618
63.4569 -18.0658 1.1517 0.7680
46.9618 9.7764 0.8373 0.8254
44.6203 15.0793 0.8221 0.8283
27.9173 13.3668 0.5403 0.8835
21.8633 13.9274 0.4525 0.9015
16.3154 13.4067 0.3686 0.9190
12.8593 13.4675 0.3250 0.9282
10.0675 13.4753 0.2936 0.9349
7.7348 13.4779 0.2712 0.9397
5.7063 13.4835 0.2556 0.9431
3.8599 13.4386 0.2441 0.9456
3.2676 20.3712 0.3601 0.9208
2.2492 58.5471 1.0227 0.7910
-29.8723 62.7667 1.2133 0.7572
-32.8922 51.9023 1.0726 0.7821
-31.0113 37.9202 0.8551 0.8220
-31.2551 29.9839 0.7560 0.8409
-30.4930 22.8931 0.6656 0.8585
-31.0448 17.9131 0.6256 0.8664
-37.4265 15.9426 0.7101 0.8498
-88.4642 3.6061 1.5454 0.7017
-88.3575 -29.3995 1.6254 0.6890
-47.5504 -22.4940 0.9182 0.8102
-35.4460 -22.3471 0.7314 0.8457
-30.0945 -24.4940 0.6773 0.8562
-30.2894 -31.4259 0.7619 0.8398
-30.1374 -39.9470 0.8735 0.8186
-30.1659 -51.9981 1.0493 0.7862
1.9948 -25.6654 0.4493 0.9021
0.8252 -4.1082 0.0731 0.9834
8.4759 -25.6742 0.4719 0.8975
12.0795 -25.6906 0.4955 0.8926
2.4353 -3.8830 0.0800 0.9818
2.9553 -3.6485 0.0820 0.9814
33.9443 -32.8704 0.8248 0.8278
34.1212 -25.8679 0.7474 0.8426
45.5533 -26.5699 0.9205 0.8098
59.1929 -25.5426 1.1253 0.7727
90.2522 -26.6110 1.6424 0.6863
43.7367 8.6782 0.7783 0.8366
46.0263 15.0754 0.8454 0.8239
28.7234 13.4234 0.5534 0.8809
22.0587 13.7630 0.4538 0.9012
16.6297 13.4059 0.3728 0.9181
12.9565 13.3173 0.3243 0.9284
10.2652 13.4747 0.2957 0.9345
7.8741 13.4275 0.2717 0.9396
5.8557 13.4831 0.2566 0.9429
3.9965 13.4382 0.2447 0.9455
3.3995 19.9938 0.3540 0.9221
2.7988 58.5456 1.0231 0.7910
-29.8680 64.3039 1.2376 0.7530
-35.6097 57.3727 1.1787 0.7633
-36.6833 45.7236 1.0232 0.7910
-30.6729 29.9823 0.7487 0.8423
-29.9030 22.8915 0.6573 0.8601
-31.0438 18.3023 0.6290 0.8657
-36.4687 15.9399 0.6947 0.8528
-53.2230 15.9643 0.9699 0.8007
-88.5958 -28.5595 1.6248 0.6891
-48.5035 -22.3910 0.9325 0.8076
-36.3582 -22.4488 0.7459 0.8429
-30.1453 -24.0693 0.6733 0.8570
-30.2877 -30.8406 0.7545 0.8412
-30.1353 -39.1751 0.8627 0.8206
-30.2949 -51.1111 1.0371 0.7884
1.7337 -25.3827 0.4441 0.9032
0.7839 -4.1013 0.0729 0.9834
8.2114 -25.6788 0.4706 0.8978
11.7837 -25.6839 0.4932 0.8931
2.4241 -3.9467 0.0808 0.9816
2.8747 -3.6177 0.0807 0.9817
26.0614 -25.7145 0.6391 0.8638
34.1433 -26.3921 0.7533 0.8414
54.2949 -32.3542 1.1032 0.7766
57.9533 -25.6546 1.1063 0.7760
55.6856 -16.9878 1.0162 0.7922
21.4013 -3.7938 0.3794 0.9167
71.9136 -3.9445 1.2571 0.7497
47.0650 8.8811 0.8360 0.8256
46.6684 14.8029 0.8546 0.8221
31.0829 14.1728 0.5963 0.8723
22.1176 13.5135 0.4524 0.9015
16.9512 13.4050 0.3772 0.9172
13.2010 13.3166 0.3273 0.9277
10.4658 13.4742 0.2978 0.9340
7.9864 13.3311 0.2713 0.9397
5.9848 13.4345 0.2567 0.9429
4.1339 13.4378 0.2454 0.9453
3.2423 18.0443 0.3200 0.9293
3.3488 58.5441 1.0236 0.7909
-1.7039 26.7930 0.4686 0.8982
-24.1709 76.8265 1.4058 0.7245
-29.8636 65.9040 1.2629 0.7487
-34.8681 57.3706 1.1718 0.7645
-36.2673 46.0832 1.0236 0.7909
-30.1018 29.9807 0.7416 0.8437
-29.3275 22.8899 0.6494 0.8617
-27.6117 16.6296 0.5626 0.8790
-29.8773 13.3937 0.5715 0.8772
-45.2094 14.0237 0.8262 0.8275
-86.4374 -5.2937 1.5116 0.7072
-48.8555 -22.0005 0.9352 0.8071
-36.7957 -22.2455 0.7505 0.8420
-30.2679 -23.7061 0.6711 0.8574
-30.1100 -30.0903 0.7430 0.8434
-30.2651 -38.5902 0.8560 0.8218
-30.1598 -49.8128 1.0164 0.7922
1.4948 -25.3820 0.4438 0.9033
0.7459 -4.1111 0.0729 0.9834
7.8606 -25.3997 0.4641 0.8991
11.4907 -25.6772 0.4910 0.8936
2.4124 -4.0115 0.0817 0.9814
2.7962 -3.5874 0.0794 0.9820
25.5856 -25.7227 0.6333 0.8649
34.1173 -26.8865 0.7582 0.8405
41.8856 -25.4944 0.8559 0.8219
56.9530 -25.8527 1.0918 0.7786
11.9180 -3.7582 0.2181 0.9512
21.3493 -3.9913 0.3791 0.9168
62.5962 -4.0222 1.0949 0.7781
47.1030 8.4318 0.8353 0.8258
46.6671 14.3226 0.8521 0.8226
31.6534 14.0761 0.6047 0.8706
22.4693 13.4408 0.4570 0.9006
17.3462 13.4550 0.3832 0.9159
13.6011 13.4654 0.3341 0.9263
10.6693 13.4736 0.3000 0.9336
8.1568 13.3306 0.2728 0.9394
6.1362 13.4341 0.2578 0.9426
4.2720 13.4374 0.2461 0.9452
3.3835 17.8664 0.3174 0.9298
3.8995 58.5426 1.0241 0.7908
-1.4498 26.7526 0.4677 0.8984
-32.5753 73.7179 1.4068 0.7244
-34.1349 57.3686 1.1652 0.7656
-36.6783 47.5149 1.0477 0.7865
-29.2577 29.6914 0.7276 0.8464
-29.1119 23.1640 0.6494 0.8617
-31.0416 19.0939 0.6361 0.8643
-29.6811 13.6413 0.5702 0.8775
-45.1299 14.4640 0.8272 0.8273
-87.5760 6.0394 1.5323 0.7039
-54.7868 -16.5341 0.9989 0.7954
-49.6489 -21.8006 0.9467 0.8050
-37.7477 -22.3407 0.7656 0.8391
-30.0906 -23.1156 0.6623 0.8592
-30.1085 -29.5301 0.7361 0.8447
-30.1311 -37.6867 0.8422 0.8245
-30.3163 -49.0283 1.0062 0.7940
1.2562 -25.3814 0.4436 0.9033
0.7113 -4.1408 0.0733 0.9833
7.6003 -25.3990 0.4628 0.8994
11.2888 -25.8739 0.4927 0.8932
18.8285 -31.9841 0.6478 0.8620
2.7524 -3.6004 0.0791 0.9820
24.8414 -25.4470 0.6207 0.8674
40.2263 -32.3164 0.9007 0.8135
41.0112 -25.4920 0.8429 0.8243
56.9759 -26.5098 1.0969 0.7777
81.6376 -26.5870 1.4986 0.7093
90.1683 15.2704 1.5963 0.6936
47.0712 13.9653 0.8570 0.8217
31.9309 13.8426 0.6075 0.8700
22.8833 13.3989 0.4629 0.8993
17.6847 13.4541 0.3879 0.9149
13.8578 13.4647 0.3373 0.9256
10.8758 13.4730 0.3022 0.9331
8.4227 13.4798 0.2774 0.9384
6.2888 13.4337 0.2589 0.9424
4.4109 13.4370 0.2469 0.9450
3.4325 17.2399 0.3068 0.9321
4.4507 58.5410 1.0248 0.7907
-2.7417 61.2006 1.0693 0.7826
-31.7520 73.7157 1.4010 0.7253
-33.4097 57.3666 1.1588 0.7668
-36.6758 48.4435 1.0606 0.7842
-29.0978 30.0879 0.7306 0.8458
-29.1107 23.6118 0.6543 0.8607
-27.3668 17.1891 0.5641 0.8787
-33.8276 15.9326 0.6527 0.8611
-45.1286 14.9313 0.8297 0.8268
-93.3380 -3.9625 1.6307 0.6882
-52.1208 -22.3057 0.9896 0.7971
-38.8175 -22.4854 0.7830 0.8357
-30.0894 -22.6696 0.6576 0.8601
-30.1620 -29.0330 0.7307 0.8458
-30.0265 -36.8425 0.8296 0.8268
-30.1541 -47.7598 0.9859 0.7977
1.0179 -25.3807 0.4434 0.9034
7.6843 -47.3954 0.8381 0.8252
7.3415 -25.3983 0.4615 0.8996
11.2952 -26.5648 0.5039 0.8909
18.4265 -31.9830 0.6443 0.8627
2.7094 -3.6137 0.0788 0.9821
24.3787 -25.4457 0.6151 0.8685
31.4281 -25.7365 0.7090 0.8500
40.6059 -25.7706 0.8395 0.8250
53.5456 -25.5269 1.0353 0.7887
76.1350 -25.5865 1.4020 0.7252
42.3000 -3.5151 0.7409 0.8438
95.3704 15.2335 1.6858 0.6795
48.7255 13.9607 0.8847 0.8165
32.1178 13.5675 0.6086 0.8698
23.1910 13.2888 0.4665 0.8986
17.9172 13.3678 0.3902 0.9145
14.0673 13.4144 0.3393 0.9252
11.0854 13.4724 0.3045 0.9326
8.5991 13.4793 0.2791 0.9380
6.4427 13.4332 0.2600 0.9421
4.5507 13.4367 0.2476 0.9448
3.5981 17.2269 0.3072 0.9320
5.0029 58.5395 1.0255 0.7905
-30.9357 73.7134 1.3954 0.7263
-32.6926 57.3646 1.1525 0.7679
-36.5087 49.1738 1.0690 0.7827
-29.0962 30.6561 0.7377 0.8444
-29.1094 24.0665 0.6593 0.8598
-27.1603 17.4165 0.5632 0.8789
-33.0166 15.9303 0.6399 0.8636
-45.1273 15.4015 0.8323 0.8263
-46.0557 -19.2016 0.8714 0.8190
-39.4066 -22.3360 0.7907 0.8343
-30.2667 -22.3615 0.6569 0.8602
-30.1605 -28.4919 0.7242 0.8471
-30.2318 -36.3927 0.8258 0.8276
-30.1139 -46.7206 0.9702 0.8006
-1.6686 -18.5031 0.3243 0.9284
0.7798 -25.3800 0.4432 0.9034
7.3802 -48.3860 0.8543 0.8222
7.0841 -25.3976 0.4602 0.8999
13.2405 -31.9686 0.6040 0.8707
14.4791 -25.6852 0.5147 0.8887
2.6666 -3.6270 0.0786 0.9822
23.9243 -25.4445 0.6096 0.8696
30.5061 -25.4628 0.6936 0.8530
39.8263 -25.8025 0.8283 0.8271
52.2713 -25.5234 1.0154 0.7924
74.6033 -25.8524 1.3782 0.7292
42.2202 -3.9073 0.7401 0.8440
50.4908 13.9558 0.9144 0.8109
32.5674 13.3992 0.6147 0.8686
23.9667 13.4366 0.4796 0.8959
18.1831 13.3027 0.3932 0.9138
14.3861 13.4633 0.3439 0.9242
11.2983 13.4718 0.3069 0.9321
8.7775 13.4788 0.2808 0.9377
6.5980 13.4328 0.2612 0.9419
4.6920 13.4381 0.2484 0.9446
3.7453 17.1282 0.3060 0.9323
5.5555 58.5380 1.0264 0.7904
-1.8663 71.6897 1.2518 0.7506
-30.2604 74.0420 1.3962 0.7262
-32.8726 58.9578 1.1783 0.7633
-36.6704 50.3709 1.0875 0.7794
-29.0946 31.2354 0.7451 0.8430
-32.8784 27.7052 0.7505 0.8420
-31.0382 20.3161 0.6475 0.8621
-32.2368 15.9282 0.6276 0.8660
-45.1259 15.8749 0.8350 0.8258
-29.5877 -4.3005 0.5219 0.8873
-54.9263 -22.2979 1.0347 0.7889
-40.2865 -22.3386 0.8041 0.8317
-30.8651 -22.3598 0.6653 0.8586
-30.1040 -27.9093 0.7165 0.8485
-30.0878 -35.5366 0.8128 0.8300
-30.2535 -45.9846 0.9608 0.8024
-34.0705 -68.5498 1.3362 0.7362
0.7888 -36.9496 0.6451 0.8626
7.5909 -53.1002 0.9363 0.8069
6.8281 -25.3969 0.4590 0.9001
12.8904 -31.9676 0.6016 0.8712
14.1666 -25.6906 0.5121 0.8893
2.6241 -3.6402 0.0783 0.9822
23.6988 -25.6828 0.6100 0.8695
29.9295 -25.4612 0.6859 0.8545
39.8521 -26.3526 0.8340 0.8260
51.5920 -25.7931 1.0068 0.7939
74.4094 -26.5687 1.3791 0.7290
33.3985 8.8954 0.6033 0.8709
37.6976 15.0985 0.7088 0.8501
24.4997 13.4352 0.4877 0.8942
18.7521 13.4511 0.4028 0.9118
14.6582 13.4625 0.3474 0.9235
11.5146 13.4712 0.3093 0.9316
8.9582 13.4783 0.2825 0.9373
6.7548 13.4324 0.2624 0.9416
4.8336 13.4377 0.2493 0.9445
3.8775 16.9692 0.3038 0.9327
6.0600 58.0611 1.0190 0.7917
-32.1768 80.8872 1.5195 0.7059
-32.5347 59.6593 1.1861 0.7620
-32.9082 46.1049 0.9887 0.7972
-31.0224 33.9371 0.8026 0.8320
-27.1260 23.2962 0.6241 0.8667
-31.0370 20.7333 0.6515 0.8613
-31.4862 15.9261 0.6159 0.8683
-33.8275 12.2576 0.6280 0.8659
-56.7578 -22.4243 1.0652 0.7834
-41.2882 -22.3908 0.8198 0.8287
-31.7260 -22.5330 0.6792 0.8558
-30.0057 -27.2999 0.7081 0.8502
-30.1234 -34.9100 0.8048 0.8315
-30.1462 -44.8996 0.9440 0.8054
0.6473 -54.0764 0.9440 0.8055
7.2165 -54.0946 0.9526 0.8039
6.5733 -25.3962 0.4579 0.9004
12.5431 -31.9667 0.5994 0.8716
13.8572 -25.6959 0.5096 0.8898
2.5844 -3.6569 0.0782 0.9822
23.2889 -25.7180 0.6056 0.8704
29.4084 -25.4967 0.6794 0.8558
39.8276 -26.8764 0.8387 0.8251
51.2626 -26.2317 1.0051 0.7942
69.5516 -25.5714 1.2935 0.7434
56.7177 14.5386 1.0220 0.7912
38.7386 15.0956 0.7257 0.8468
25.0509 13.4336 0.4962 0.8925
19.0673 13.4084 0.4069 0.9110
14.9360 13.4617 0.3510 0.9227
11.7343 13.4706 0.3118 0.9310
9.1072 13.4279 0.2832 0.9372
6.9378 13.4801 0.2646 0.9412
4.9762 13.4373 0.2501 0.9443
3.2175 13.4974 0.2422 0.9460
1.0061 8.8369 0.1552 0.9650
-29.8917 77.2424 1.4457 0.7180
-32.2112 60.4065 1.1949 0.7604
-36.2514 51.8086 1.1037 0.7765
-31.0206 34.5803 0.8109 0.8304
-32.8755 28.7736 0.7626 0.8396
-31.0358 21.1558 0.6556 0.8605
-31.0499 16.0727 0.6103 0.8695
-37.9642 14.1603 0.7073 0.8504
-58.0008 -22.2894 1.0846 0.7799
-42.1196 -22.3335 0.8322 0.8264
-32.1104 -22.3563 0.6830 0.8551
-30.1011 -26.8755 0.7044 0.8509
-30.1216 -34.2533 0.7962 0.8332
-30.1882 -44.0643 0.9323 0.8076
7.4085 -59.8042 1.0519 0.7858
6.3197 -25.3955 0.4568 0.9006
12.2627 -32.1345 0.6004 0.8714
13.3999 -25.4152 0.5015 0.8914
2.5536 -3.6861 0.0783 0.9822
22.8450 -25.7078 0.6003 0.8715
29.1297 -25.7371 0.6785 0.8560
37.3952 -25.7482 0.7925 0.8339
51.2492 -26.8337 1.0098 0.7934
68.3699 -25.8667 1.2759 0.7464
31.9086 -3.8602 0.5610 0.8793
56.7195 13.9740 1.0196 0.7916
39.8300 15.0926 0.7435 0.8433
25.6215 13.4320 0.5050 0.8907
20.5310 14.1521 0.4353 0.9051
15.1619 13.4100 0.3533 0.9222
11.9575 13.4700 0.3144 0.9305
9.3264 13.4773 0.2861 0.9365
7.0982 13.4797 0.2659 0.9409
5.1197 13.4369 0.2510 0.9441
3.3135 13.3440 0.2400 0.9465
1.1096 8.9948 0.1582 0.9644
-2.0687 17.3660 0.3053 0.9324
-29.8857 79.4311 1.4814 0.7121
-32.2074 61.7869 1.2162 0.7567
-36.6619 53.4545 1.1314 0.7716
-31.0188 35.2373 0.8194 0.8288
-32.8739 29.3208 0.7689 0.8384
-24.2281 16.8499 0.5151 0.8886
-31.0489 16.4429 0.6133 0.8689
-37.9630 14.5665 0.7097 0.8499
-87.1991 0.3861 1.5221 0.7055
-59.6521 -22.2848 1.1115 0.7751
-43.0856 -22.3308 0.8471 0.8235
-32.7581 -22.3545 0.6922 0.8533
-30.2757 -26.5258 0.7026 0.8513
-30.2960 -33.8075 0.7924 0.8339
-30.1412 -43.1235 0.9184 0.8102
2.9337 -25.6493 0.4506 0.9019
6.1345 -25.6753 0.4608 0.8998
11.9590 -32.2424 0.6003 0.8715
13.0966 -25.4143 0.4991 0.8919
2.5227 -3.7154 0.0784 0.9822
22.7132 -26.0471 0.6033 0.8709
28.5710 -25.7243 0.6711 0.8574
36.2716 -25.4788 0.7737 0.8375
47.6305 -25.5104 0.9430 0.8056
68.3901 -26.6099 1.2809 0.7456
64.0712 -16.3883 1.1544 0.7675
58.9231 13.9324 1.0569 0.7849
40.9763 15.0894 0.7622 0.8397
26.2127 13.4304 0.5141 0.8888
21.0206 14.2007 0.4428 0.9035
15.4503 13.4092 0.3571 0.9214
12.1394 13.4195 0.3159 0.9302
9.5140 13.4768 0.2879 0.9361
7.2600 13.4792 0.2672 0.9406
5.2642 13.4365 0.2519 0.9439
3.4464 13.3437 0.2406 0.9464
1.2016 9.0426 0.1592 0.9642
-1.8948 17.2837 0.3035 0.9328
-32.2034 63.2176 1.2384 0.7529
-36.6588 54.5387 1.1470 0.7688
-31.0169 35.9080 0.8282 0.8271
-32.6785 29.7009 0.7708 0.8381
-31.0334 22.0173 0.6642 0.8588
-28.1655 15.2555 0.5591 0.8797
-31.7828 12.5381 0.5964 0.8722
-52.2628 13.6293 0.9428 0.8057
-86.3954 1.1921 1.5082 0.7077
-44.2961 -22.4342 0.8667 0.8198
-33.6853 -22.5276 0.7073 0.8503
-30.2744 -26.0270 0.6969 0.8524
-30.1180 -32.9819 0.7796 0.8364
-30.1439 -42.2781 0.9063 0.8124
2.6908 -25.6535 0.4502 0.9020
5.8794 -25.6695 0.4597 0.9000
11.6137 -32.2345 0.5981 0.8719
12.7961 -25.4135 0.4967 0.8924
2.4917 -3.7448 0.0785 0.9822
22.7156 -26.5479 0.6099 0.8695
28.4228 -26.0773 0.6733 0.8570
35.5554 -25.4768 0.7635 0.8395
46.5712 -25.5075 0.9268 0.8086
63.9024 -25.5557 1.2013 0.7593
62.8062 -16.6936 1.1343 0.7711
90.1826 20.4337 1.6140 0.6908
42.1819 15.0860 0.7820 0.8359
26.8261 13.4287 0.5236 0.8869
13.4525 8.9057 0.2816 0.9375
15.7450 13.4083 0.3610 0.9206
12.4155 13.4687 0.3197 0.9293
9.7040 13.4763 0.2899 0.9357
7.4236 13.4788 0.2686 0.9403
5.4099 13.4361 0.2528 0.9437
3.5800 13.3433 0.2411 0.9462
3.2749 22.9933 0.4054 0.9113
-1.7438 17.4098 0.3054 0.9324
-32.1993 64.7020 1.2615 0.7489
-24.2312 36.7896 0.7689 0.8384
-31.0150 36.5934 0.8373 0.8254
-32.3782 29.9870 0.7703 0.8382
-31.0322 22.4563 0.6686 0.8579
-31.0468 17.1943 0.6195 0.8676
-31.6209 12.8180 0.5956 0.8724
-33.0837 8.9594 0.5983 0.8719
-86.9862 2.0159 1.5187 0.7060
-86.4575 -19.1641 1.5457 0.7017
-45.0069 -22.2665 0.8764 0.8180
-34.2961 -22.4738 0.7157 0.8487
-30.0970 -25.3880 0.6873 0.8543
-30.1163 -32.3654 0.7717 0.8379
-30.1967 -41.5235 0.8962 0.8143
45.4885 -25.9638 -0.9142 0.8110
62.6292 -26.3321 -1.1859 0.7620
62.2021 -17.7085 -1.1289 0.7720
96.2965 -15.2149 -1.7017 0.6770
75.2044 -2.7127 -1.3135 0.7400
96.7927 8.2078 -1.6956 0.6780
43.7450 9.1067 -0.7799 0.8363
43.8866 14.8313 -0.8086 0.8308
27.9173 13.3668 -0.5403 0.8835
21.8633 13.9274 -0.4525 0.9015
16.2975 13.3920 -0.3682 0.9191
12.8593 13.4675 -0.3250 0.9282
10.0675 13.4753 -0.2936 0.9349
7.7061 13.4279 -0.2702 0.9399
5.7063 13.4835 -0.2556 0.9431
3.8743 13.4886 -0.2450 0.9454
3.0428 18.9695 -0.3353 0.9260
2.2492 58.5471 -1.0227 0.7910
-8.0099 97.1615 -1.7017 0.6770
-19.6458 95.4911 -1.7017 0.6770
-26.2222 78.1965 -1.4396 0.7190
-10.4545 21.9667 -0.4246 0.9073
-26.5547 41.9021 -0.8659 0.8200
-26.5932 32.5178 -0.7332 0.8453
-26.6046 25.5225 -0.6435 0.8629
-26.4967 19.8928 -0.5783 0.8759
-27.4792 15.8557 -0.5538 0.8808
-30.0423 12.7971 -0.5700 0.8775
-40.9532 11.8668 -0.7442 0.8432
-29.9425 4.8749 -0.5295 0.8857
-87.6034 3.5710 -1.5304 0.7042
-88.4882 -7.0862 -1.5495 0.7011
-86.9921 -17.6850 -1.5495 0.7011
-22.6309 -7.5301 -0.4163 0.9090
-47.5504 -22.4940 -0.9182 0.8102
-35.4401 -22.3433 -0.7313 0.8457
-30.0537 -24.4608 -0.6764 0.8564
-30.1132 -31.2431 -0.7574 0.8406
-30.1374 -39.9470 -0.8735 0.8186
-30.1659 -51.9981 -1.0493 0.7862
-38.4163 -89.6030 -1.7017 0.6770
-27.3527 -93.5753 -1.7017 0.6770
-15.8914 -96.1872 -1.7017 0.6770
-4.1821 -97.0125 -1.6949 0.6781
1.9946 -25.6627 -0.4493 0.9021
0.8251 -4.1081 -0.0731 0.9834
8.4750 -25.6714 -0.4719 0.8975
12.0781 -25.6876 -0.4955 0.8927
2.4590 -3.9207 -0.0808 0.9817
2.9370 -3.6258 -0.0814 0.9815
33.9443 -32.8704 -0.8248 0.8278
34.1240 -25.8701 -0.7475 0.8426
45.4998 -26.5387 -0.9194 0.8100
59.1929 -25.5426 -1.1252 0.7727
85.1474 -25.1058 -1.5495 0.7011
21.6768 -3.6334 -0.3836 0.9158
58.7170 -2.6691 -1.0260 0.7905
97.2154 7.3268 -1.7017 0.6770
43.7367 8.6782 -0.7783 0.8366
45.2695 14.8275 -0.8315 0.8265
28.7234 13.4234 -0.5534 0.8809
22.0587 13.7630 -0.4538 0.9012
16.6929 13.4569 -0.3743 0.9178
12.9565 13.3173 -0.3243 0.9284
10.2652 13.4747 -0.2957 0.9345
7.8741 13.4275 -0.2717 0.9396
5.8557 13.4831 -0.2566 0.9429
4.0114 13.4882 -0.2456 0.9453
3.1021 18.2447 -0.3230 0.9286
2.7988 58.5456 -1.0231 0.7910
-7.0412 96.4407 -1.6878 0.6792
-18.7501 95.6710 -1.7017 0.6770
-26.2088 80.6560 -1.4803 0.7123
-10.1865 21.9309 -0.4221 0.9078
-26.5431 42.7651 -0.8786 0.8176
-26.5730 33.1217 -0.7412 0.8438
-26.6413 26.0414 -0.6503 0.8615
-26.7295 20.4621 -0.5876 0.8740
-27.3542 16.1271 -0.5543 0.8807
-29.6358 12.9534 -0.5645 0.8786
-39.3663 11.8080 -0.7174 0.8484
-29.9829 5.1703 -0.5311 0.8854
-88.6601 4.4466 -1.5495 0.7011
-88.5507 -6.2567 -1.5495 0.7011
-87.1540 -16.8690 -1.5495 0.7011
-22.4135 -7.2251 -0.4111 0.9101
-48.5035 -22.3910 -0.9325 0.8076
-36.3582 -22.4488 -0.7459 0.8429
-30.0489 -23.9923 -0.6712 0.8574
-30.1116 -30.6612 -0.7501 0.8420
-30.1353 -39.1751 -0.8627 0.8206
-30.1628 -50.8882 -1.0326 0.7893
-39.2543 -89.2391 -1.7017 0.6770
-28.2284 -93.3149 -1.7017 0.6770
-16.7920 -96.0341 -1.7017 0.6770
-5.0923 -96.9938 -1.6954 0.6780
1.7337 -25.3827 -0.4441 0.9032
0.7839 -4.1012 -0.0729 0.9834
8.2105 -25.6759 -0.4705 0.8978
11.7823 -25.6808 -0.4932 0.8931
2.4480 -3.9857 -0.0816 0.9815
2.8487 -3.5850 -0.0799 0.9818
26.0576 -25.7107 -0.6390 0.8638
34.1457 -26.3940 -0.7533 0.8414
43.1331 -25.7030 -0.8764 0.8180
37.0553 -16.4035 -0.7073 0.8503
55.6024 -16.9624 -1.0147 0.7925
21.4357 -3.7999 -0.3800 0.9166
50.4500 -2.7672 -0.8819 0.8170
97.2798 6.4155 -1.7017 0.6770
47.0844 8.8847 -0.8364 0.8256
46.7331 14.8234 -0.8558 0.8219
31.0829 14.1728 -0.5963 0.8723
22.1176 13.5135 -0.4524 0.9015
17.0157 13.4560 -0.3787 0.9169
12.9816 13.0952 -0.3219 0.9289
10.4658 13.4742 -0.2978 0.9340
7.9864 13.3311 -0.2713 0.9397
6.0063 13.4827 -0.2576 0.9427
4.1492 13.4879 -0.2463 0.9451
3.2423 18.0443 -0.3200 0.9293
2.9006 50.7085 -0.8866 0.8161
-1.7074 26.8478 -0.4696 0.8980
-17.8527 95.8426 -1.7017 0.6770
-24.1228 76.6737 -1.4030 0.7250
-9.9345 21.9238 -0.4201 0.9082
-26.5935 43.7560 -0.8938 0.8148
-26.5704 33.7618 -0.7499 0.8421
-26.6538 26.5466 -0.6566 0.8603
-26.6260 20.7814 -0.5896 0.8736
-27.3150 16.4509 -0.5566 0.8802
-29.4043 13.1817 -0.5625 0.8790
-38.2030 11.8504 -0.6982 0.8521
-30.1033 5.4820 -0.5341 0.8848
-86.7913 5.1686 -1.5176 0.7062
-62.0627 -3.8010 -1.0853 0.7798
-87.3082 -16.0516 -1.5495 0.7011
-22.3840 -6.9848 -0.4093 0.9105
-48.8375 -21.9924 -0.9349 0.8071
-36.9568 -22.3429 -0.7538 0.8413
-30.0442 -23.5309 -0.6661 0.8584
-30.1100 -30.0903 -0.7430 0.8434
-30.1332 -38.4219 -0.8523 0.8226
-30.1598 -49.8128 -1.0164 0.7922
-40.0888 -88.8674 -1.7017 0.6770
-29.1015 -93.0463 -1.7017 0.6770
-17.6912 -95.8725 -1.7017 0.6770
-3.6301 -58.6422 -1.0256 0.7905
1.4948 -25.3820 -0.4438 0.9033
0.7459 -4.1110 -0.0729 0.9834
7.8606 -25.3998 -0.4641 0.8991
11.4893 -25.6742 -0.4910 0.8936
19.2350 -31.9853 -0.6515 0.8613
2.7911 -3.5809 -0.0792 0.9820
25.5818 -25.7189 -0.6332 0.8649
34.1200 -26.8886 -0.7583 0.8405
41.8856 -25.4944 -0.8559 0.8219
36.8643 -16.7339 -0.7067 0.8505
11.9164 -3.7577 -0.2181 0.9512
21.4407 -4.0083 -0.3807 0.9164
62.2021 -3.9968 -1.0880 0.7793
97.3356 5.5036 -1.7017 0.6770
47.1893 8.4473 -0.8367 0.8255
50.3161 15.4425 -0.9187 0.8101
31.6534 14.0761 -0.6047 0.8706
22.4693 13.4408 -0.4570 0.9006
17.2769 13.4013 -0.3817 0.9162
12.9809 12.8514 -0.3188 0.9295
10.6693 13.4736 -0.3000 0.9336
8.1568 13.3306 -0.2728 0.9394
6.1582 13.4823 -0.2587 0.9424
4.2879 13.4875 -0.2470 0.9450
3.3835 17.8664 -0.3174 0.9298
3.8995 58.5426 -1.0241 0.7908
-1.4569 26.8834 -0.4699 0.8979
-16.9539 96.0056 -1.7017 0.6770
-25.8468 84.9254 -1.5495 0.7011
-9.7013 21.9541 -0.4190 0.9084
-26.5729 44.6596 -0.9071 0.8123
-26.5365 34.3766 -0.7580 0.8405
-26.6222 27.0169 -0.6621 0.8592
-26.7824 21.3104 -0.5974 0.8720
-26.9991 16.6074 -0.5533 0.8809
-29.0645 13.3579 -0.5583 0.8799
-36.9070 11.8286 -0.6765 0.8564
-87.1823 16.7221 -1.5495 0.7011
-86.7668 5.9836 -1.5181 0.7061
-88.6524 -4.5961 -1.5495 0.7011
-87.4548 -15.2327 -1.5495 0.7011
-22.3621 -6.7486 -0.4077 0.9108
-49.6489 -21.8006 -0.9464 0.8050
-37.7477 -22.3407 -0.7656 0.8391
-30.0397 -23.0765 -0.6612 0.8594
-30.1080 -29.5296 -0.7361 0.8448
-30.1311 -37.6867 -0.8422 0.8245
-30.1569 -48.7706 -1.0009 0.7950
-40.9198 -88.4878 -1.7017 0.6770
-29.9721 -92.7695 -1.7017 0.6770
-18.5888 -95.7025 -1.7017 0.6770
-6.9136 -96.9435 -1.6964 0.6779
1.2562 -25.3814 -0.4436 0.9033
0.7113 -4.1408 -0.0733 0.9833
7.3440 -24.5425 -0.4472 0.9026
11.2908 -25.8784 -0.4928 0.8932
18.8285 -31.9841 -0.6478 0.8620
2.7478 -3.5944 -0.0790 0.9821
24.8414 -25.4470 -0.6207 0.8674
40.1469 -32.2526 -0.8989 0.8138
41.0112 -25.4920 -0.8429 0.8243
56.9222 -26.4848 -1.0959 0.7779
81.6376 -26.5870 -1.4986 0.7093
87.1030 -17.1304 -1.5495 0.7011
51.8128 -3.8172 -0.9068 0.8123
97.3829 4.5913 -1.7017 0.6770
87.5253 14.8228 -1.5495 0.7011
50.5219 14.9890 -0.9198 0.8099
31.9309 13.8426 -0.6075 0.8700
22.8833 13.3989 -0.4628 0.8993
17.6140 13.4004 -0.3863 0.9153
13.0199 12.6505 -0.3169 0.9299
10.8758 13.4730 -0.3022 0.9331
8.4227 13.4798 -0.2774 0.9384
6.3113 13.4819 -0.2598 0.9422
