ply
format ascii 1.0
element vertex 1563
property float32 x
property float32 y
property float32 z
property float32 I
end_header
-26.9670 -25.1356 8.5109 0.8596
-26.9862 -32.0437 9.6718 0.8420
-28.8656 -44.1231 12.1728 0.8054
-27.0443 -54.7617 14.1004 0.7782
4.0442 -27.8319 6.4930 0.8910
7.6680 -28.2664 6.7617 0.8867
11.4341 -28.1758 7.0201 0.8826
15.6232 -28.1875 7.4403 0.8761
20.4958 -28.3055 8.0681 0.8664
5.9491 -6.4204 2.0208 0.9647
40.0360 -33.9193 12.1143 0.8062
58.4510 -38.4855 16.1569 0.7503
68.3337 -33.9979 17.6208 0.7310
20.7015 -7.3477 5.0714 0.9138
21.0180 -4.7103 4.9728 0.9154
22.2340 -2.2276 5.1588 0.9123
46.1259 12.3670 11.0251 0.8220
25.9900 10.4579 6.4678 0.8914
19.0314 10.4752 5.0153 0.9147
15.1095 10.8729 4.2976 0.9264
11.6101 10.6944 3.6442 0.9373
8.9956 10.5547 3.2017 0.9447
4.2991 6.4877 1.7968 0.9686
6.0034 11.9779 3.0932 0.9465
5.1618 14.4080 3.5334 0.9391
3.0695 13.5102 3.1986 0.9447
1.2601 12.2139 2.8348 0.9508
-0.2146 12.0576 2.7842 0.9517
-2.0051 14.3946 3.3553 0.9421
-30.2499 55.3439 14.5612 0.7719
-29.7965 41.6649 11.8257 0.8104
-25.9812 28.3732 8.8819 0.8539
-28.0642 24.0621 8.5346 0.8592
-28.0657 18.7172 7.7882 0.8707
-26.0185 13.1368 6.7291 0.8872
-34.8471 12.6003 8.5549 0.8589
-46.1507 -25.0486 12.1229 0.8061
-34.9964 -24.8719 9.9122 0.8384
-27.3461 -24.8932 8.5374 0.8592
-27.1603 -31.4893 9.6005 0.8431
-29.5605 -44.0431 12.2461 0.8043
-26.9456 -52.9791 13.7223 0.7835
3.7477 -28.1177 6.5489 0.8901
7.3111 -28.2654 6.7403 0.8870
10.9216 -27.8510 6.9066 0.8844
14.8018 -27.4640 7.2028 0.8798
23.9986 -33.9793 9.6040 0.8430
5.7270 -6.3287 1.9705 0.9656
38.8562 -33.7145 11.8767 0.8096
50.2593 -33.9477 14.0022 0.7796
66.3494 -33.9924 17.2113 0.7364
20.5744 -7.5769 5.0618 0.9139
20.7786 -4.9145 4.9295 0.9161
22.5173 -2.5245 5.2311 0.9112
44.9230 0.4024 10.3717 0.8316
47.3408 12.0965 11.2806 0.8182
16.5235 6.4235 4.0929 0.9298
19.8516 10.6236 5.1981 0.9117
15.4944 10.8750 4.3703 0.9252
11.8908 10.6966 3.6925 0.9365
9.2122 10.5541 3.2342 0.9441
7.1503 10.5190 2.9364 0.9491
6.0140 11.6539 3.0276 0.9476
5.4095 14.5566 3.5852 0.9382
3.0159 12.5854 2.9878 0.9483
1.3917 12.0915 2.8100 0.9513
-0.0718 11.9513 2.7592 0.9521
-1.6739 13.1495 3.0603 0.9470
-29.7595 56.0057 14.6420 0.7708
-29.8312 42.7703 12.0388 0.8073
-31.8736 35.6425 11.0391 0.8218
-27.9179 24.5135 8.5774 0.8585
-28.0644 19.1982 7.8501 0.8697
-26.0174 13.5235 6.7696 0.8866
-34.8458 13.0662 8.5918 0.8583
-47.0879 -24.8433 12.2913 0.8037
-36.1338 -25.0443 10.1500 0.8349
-28.1957 -25.0650 8.7097 0.8565
-26.9820 -30.5472 9.4096 0.8459
-29.7501 -43.2160 12.1127 0.8062
-27.0356 -51.6403 13.4571 0.7872
-27.5086 -72.7088 17.9474 0.7268
3.6828 -30.3588 7.0603 0.8820
6.9565 -28.2644 6.7201 0.8874
10.5242 -27.7974 6.8621 0.8851
14.3859 -27.4629 7.1575 0.8805
19.4214 -28.1981 7.9047 0.8689
5.6139 -6.3528 1.9573 0.9658
38.1678 -33.9141 11.7877 0.8109
48.9986 -33.9442 13.7615 0.7829
64.3586 -33.9360 16.7974 0.7418
20.9360 -7.9916 5.1736 0.9121
20.9596 -5.2190 4.9867 0.9151
22.6278 -2.8073 5.2641 0.9106
50.9297 12.3758 12.1002 0.8064
28.1983 10.5811 6.9533 0.8837
20.4238 10.6220 5.3148 0.9098
15.6138 10.6863 4.3681 0.9253
12.4287 10.9182 3.8193 0.9343
9.4331 10.5534 3.2679 0.9435
7.3288 10.5128 2.9586 0.9488
6.0328 11.3596 2.9695 0.9486
5.5645 14.4497 3.5748 0.9384
3.2145 12.7491 3.0355 0.9475
1.5532 12.2241 2.8448 0.9507
0.0685 11.8510 2.7361 0.9525
-1.4596 12.6556 2.9411 0.9490
-29.7550 57.6263 14.9729 0.7663
-29.7933 43.8079 12.2311 0.8045
-31.8713 36.4969 11.1865 0.8196
-27.8413 25.0337 8.6439 0.8575
-20.3663 14.2873 5.7435 0.9029
-28.0487 15.0020 7.3436 0.8776
-34.7281 13.4912 8.6014 0.8582
-48.6536 -24.9406 12.6224 0.7990
-36.7966 -24.8669 10.2531 0.8333
-28.6738 -24.8913 8.7662 0.8557
-26.9800 -29.8286 9.2856 0.8478
-29.6919 -42.0610 11.8863 0.8095
-27.0316 -50.1841 13.1598 0.7914
-28.2861 -72.1808 17.8981 0.7274
3.3431 -30.5691 7.0995 0.8814
6.6038 -28.2634 6.7009 0.8877
10.1509 -27.7963 6.8318 0.8856
13.9752 -27.4617 7.1138 0.8812
18.9343 -28.1967 7.8412 0.8699
5.5455 -6.4264 1.9597 0.9658
37.3112 -33.9483 11.6459 0.8130
47.7803 -33.9408 13.5308 0.7862
62.2711 -33.7795 16.3554 0.7476
21.3497 -8.4391 5.3001 0.9101
21.0111 -5.4957 5.0140 0.9147
23.1975 -3.1561 5.4049 0.9084
43.1301 -0.6306 9.9584 0.8377
52.4080 12.0824 12.4167 0.8019
28.8735 10.4478 7.0890 0.8816
21.1224 10.6709 5.4635 0.9074
16.0140 10.6851 4.4446 0.9240
12.6945 10.8892 3.8613 0.9336
9.9914 10.9163 3.4165 0.9411
7.5087 10.5048 2.9811 0.9484
5.7202 10.4712 2.7547 0.9522
6.2448 15.6632 3.8929 0.9331
3.3997 12.8431 3.0672 0.9469
1.7232 12.3918 2.8884 0.9499
0.2121 12.0695 2.7869 0.9517
-1.3212 12.7767 2.9655 0.9486
-29.7503 59.3226 15.3214 0.7615
-29.8251 44.9857 12.4610 0.8013
-31.2689 36.6706 11.1260 0.8205
-27.5442 25.3602 8.6439 0.8575
-28.0617 20.1836 7.9803 0.8677
-28.0748 15.4443 7.3976 0.8767
-33.7074 13.5542 8.3875 0.8614
-42.9084 11.4938 10.2554 0.8333
-49.8890 -24.8355 12.8660 0.7955
-41.8000 -27.5359 11.5560 0.8143
-29.3618 -24.8876 8.8862 0.8538
-26.9781 -29.1289 9.1661 0.8496
-29.7218 -41.0670 11.7036 0.8121
-27.0830 -48.8900 12.9033 0.7950
-28.8413 -71.1185 17.7178 0.7298
6.2531 -28.2624 6.6827 0.8880
9.7991 -27.8479 6.8156 0.8859
13.5696 -27.4606 7.0716 0.8818
18.4552 -28.1957 7.7799 0.8708
5.5004 -6.5281 1.9708 0.9656
36.3773 -33.8911 11.4784 0.8154
46.3245 -33.7352 13.2302 0.7904
60.9111 -33.9773 16.1023 0.7510
22.0178 -9.0048 5.4919 0.9070
20.9433 -5.7425 5.0136 0.9147
23.0576 -3.4143 5.3813 0.9087
40.9596 -1.0820 9.4596 0.8452
56.2568 12.2733 13.2934 0.7895
30.5372 10.6444 7.4661 0.8757
21.7524 10.6692 5.5935 0.9053
16.4284 10.6840 4.5243 0.9227
12.7686 10.6942 3.8452 0.9339
10.2299 10.9156 3.4538 0.9404
7.6914 10.4965 3.0042 0.9480
5.7313 10.2037 2.7019 0.9531
6.0404 14.6461 3.6576 0.9370
3.5537 12.8125 3.0697 0.9469
1.9222 12.7221 2.9705 0.9486
0.3587 12.2168 2.8217 0.9511
-1.1705 12.7922 2.9657 0.9486
-29.7803 61.1717 15.7072 0.7563
-29.8218 46.1533 12.6861 0.7981
-30.5278 36.6685 11.0154 0.8221
-27.2434 25.6830 8.6439 0.8575
-27.6163 20.3615 7.9213 0.8686
-28.0736 15.8776 7.4461 0.8760
-32.2322 13.4045 8.0592 0.8665
-42.0160 11.7874 10.0746 0.8360
-51.3901 -24.8314 13.1768 0.7911
-43.0913 -27.6638 11.8218 0.8104
-30.0713 -24.8856 9.0115 0.8519
-27.0313 -28.5048 9.0694 0.8511
-29.6085 -39.9115 11.4730 0.8155
-27.0240 -47.4548 12.6077 0.7992
-29.3972 -70.1043 17.5502 0.7319
5.9044 -28.2615 6.6655 0.8882
9.4313 -27.8469 6.7877 0.8863
13.2237 -27.5745 7.0603 0.8820
21.4732 -33.6663 9.2189 0.8488
35.5511 -43.2177 12.9197 0.7947
35.3865 -33.7564 11.2906 0.8181
45.4614 -33.9344 13.0971 0.7922
59.2182 -33.9545 15.7595 0.7556
15.0408 -6.3593 3.7701 0.9352
20.6916 -5.9367 4.9698 0.9154
21.9424 -3.5141 5.1304 0.9128
40.7351 -1.5567 9.4113 0.8459
59.5803 12.2641 14.0436 0.7790
31.7276 10.6415 7.7259 0.8716
22.4133 10.6674 5.7307 0.9031
16.8298 10.6648 4.5999 0.9215
13.0779 10.6933 3.9001 0.9330
10.3714 10.8083 3.4583 0.9404
7.8769 10.4879 3.0282 0.9476
5.8904 10.2032 2.7200 0.9528
3.4246 -36.1601 7.0603 0.8624
6.1726 -28.2621 5.6231 0.8888
9.7141 -27.8477 5.7329 0.8868
13.8808 -28.2837 6.1242 0.8795
18.4113 -28.2963 6.5620 0.8715
5.4803 -6.5403 1.6586 0.9658
30.1341 -28.2279 8.0260 0.8451
46.0275 -33.7107 11.0898 0.7926
60.5224 -33.9762 13.4914 0.7537
79.7192 -32.8563 16.7604 0.7037
23.8420 -6.6070 4.8091 0.9041
22.7949 -3.4388 4.4810 0.9103
43.1085 -1.2559 8.3830 0.8388
56.6353 12.1948 11.2611 0.7897
30.8051 10.6440 6.3353 0.8756
21.8650 10.6508 4.7275 0.9056
16.5261 10.6837 3.8252 0.9229
12.6596 10.5445 3.2026 0.9351
9.6031 10.1912 2.7219 0.9445
7.7107 10.4631 2.5264 0.9484
6.1122 10.8130 2.4144 0.9506
5.9460 14.3069 3.0116 0.9388
4.4908 16.0217 3.2343 0.9344
2.1901 14.2329 2.7992 0.9430
0.3861 12.0359 2.3407 0.9521
-1.1728 13.2123 2.5783 0.9474
-31.2041 64.5410 13.9348 0.7467
-31.7038 49.3595 11.4032 0.7874
-28.0469 33.8753 8.5487 0.8359
-28.0571 26.5946 7.5144 0.8543
-26.0362 19.3058 6.3004 0.8763
-26.0487 14.8259 5.8260 0.8850
-27.3363 11.4556 5.7613 0.8862
-42.0156 11.9104 8.4888 0.8370
-51.7465 -24.8304 11.1566 0.7915
-43.1437 -27.5322 9.9484 0.8118
-30.1994 -24.8538 7.6025 0.8527
-26.9443 -28.2588 7.5897 0.8529
-26.0651 -34.9363 8.4727 0.8373
-27.0232 -47.1553 10.5645 0.8013
-29.9578 -70.9007 14.9614 0.7308
5.8242 -28.2611 5.6088 0.8891
9.3471 -27.8466 5.7096 0.8872
13.4689 -28.2825 6.0891 0.8802
17.9393 -28.2949 6.5122 0.8724
22.9983 -28.1133 7.0603 0.8624
35.4709 -34.0210 9.5536 0.8185
45.2042 -33.9337 10.9871 0.7943
58.7397 -33.8923 13.1821 0.7586
23.6119 -10.0589 4.9888 0.9007
21.4227 -6.2094 4.3356 0.9131
22.9285 -3.7359 4.5156 0.9097
42.0802 -1.7227 8.1864 0.8423
60.3983 12.2618 11.9797 0.7779
31.4794 10.4633 6.4481 0.8736
22.7421 10.7482 4.8894 0.9026
17.3121 10.9046 3.9771 0.9200
12.9664 10.5436 3.2485 0.9342
9.8317 10.1905 2.7524 0.9439
7.8834 10.4376 2.5425 0.9481
6.1540 10.5934 2.3814 0.9513
5.9630 13.8837 2.9371 0.9403
3.8506 13.1399 2.6615 0.9457
2.3488 14.1523 2.7886 0.9432
0.5408 12.3222 2.3975 0.9510
-1.0022 13.0330 2.5408 0.9481
-30.2695 64.5384 13.8563 0.7479
-31.8446 50.8882 11.6688 0.7830
-27.9104 34.5313 8.6306 0.8345
-27.9108 27.0875 7.5602 0.8534
-26.0349 19.7848 6.3561 0.8752
-26.0475 15.2346 5.8655 0.8843
-26.5104 11.4788 5.6154 0.8889
-42.0142 12.4468 8.5176 0.8365
-30.0167 5.0727 5.9174 0.8833
-53.6213 -24.9567 11.4965 0.7858
-38.5846 -23.9874 8.8313 0.8310
-30.9720 -24.8831 7.7226 0.8505
-26.9424 -27.5981 7.4970 0.8546
-26.5847 -34.7698 8.5077 0.8366
-27.1518 -46.1109 10.4015 0.8041
-30.5880 -70.0764 14.8626 0.7323
1.4946 -21.0608 4.1041 0.9176
5.4775 -28.2600 5.5954 0.8893
9.1199 -28.2704 5.7741 0.8860
13.0616 -28.2814 6.0553 0.8808
17.4743 -28.2937 6.4641 0.8733
22.2256 -27.8318 6.9233 0.8649
35.4982 -34.8598 9.6709 0.8165
44.1075 -33.9306 10.8170 0.7971
58.4617 -34.6568 13.2105 0.7581
79.7156 -35.0754 16.9288 0.7013
21.2728 -6.4388 4.3203 0.9134
22.8017 -3.9917 4.4996 0.9100
40.6752 -2.1457 7.9175 0.8471
64.2196 12.2512 12.7081 0.7661
32.5916 10.4080 6.6503 0.8699
23.1952 10.6297 4.9596 0.9013
17.7216 10.8729 4.0414 0.9188
13.1311 10.4228 3.2588 0.9340
10.0656 10.1897 2.7841 0.9433
8.0581 10.4114 2.5591 0.9478
6.3219 10.5929 2.3979 0.9510
5.7254 12.9088 2.7449 0.9441
4.0342 13.1881 2.6808 0.9454
2.5129 14.1092 2.7857 0.9433
0.6813 12.2296 2.3809 0.9513
-0.8520 13.0983 2.5514 0.9479
-28.7551 63.2381 13.5034 0.7535
-31.6628 51.9495 11.8257 0.7804
-29.8050 37.7777 9.3535 0.8219
-27.6253 27.4502 7.5700 0.8533
-26.0336 20.2723 6.4137 0.8742
-26.0464 15.6489 5.9064 0.8835
-26.3732 11.7905 5.6154 0.8889
-42.0127 12.9871 8.5477 0.8359
-55.0167 -24.8213 11.7322 0.7820
-39.6880 -24.0294 9.0184 0.8277
-31.7283 -24.8810 7.8375 0.8485
-26.8198 -26.8322 7.3743 0.8568
-26.9929 -34.4543 8.5078 0.8366
-27.0213 -44.6762 10.1490 0.8084
5.0365 -27.7305 5.4784 0.8915
8.7530 -28.2694 5.7524 0.8864
12.6587 -28.2803 6.0227 0.8814
16.7212 -27.8022 6.3063 0.8762
21.6906 -27.8284 6.8584 0.8661
35.4655 -35.6587 9.7759 0.8147
43.0441 -33.9277 10.6535 0.7998
58.4083 -35.5623 13.2923 0.7568
21.6633 -6.8367 4.4156 0.9116
22.7884 -4.2669 4.5066 0.9099
24.1398 -1.5590 4.7021 0.9061
93.5993 16.7150 18.4817 0.6788
35.2423 10.7983 7.1648 0.8605
23.5599 10.4626 5.0108 0.9003
17.8464 10.6620 4.0409 0.9188
13.5411 10.4905 3.3296 0.9326
10.5977 10.4783 2.8969 0.9411
8.2348 10.3844 2.5762 0.9474
6.4922 10.5925 2.4149 0.9506
5.7466 12.5549 2.6839 0.9453
4.2418 13.3040 2.7143 0.9447
2.5669 13.4896 2.6692 0.9456
0.8831 13.0746 2.5472 0.9480
-0.6867 12.9043 2.5119 0.9487
-27.8591 63.2357 13.4318 0.7546
-31.0482 52.3191 11.8257 0.7804
-29.8423 38.7559 9.5079 0.8193
-26.9798 27.4484 7.4813 0.8548
-25.9974 20.7410 6.4646 0.8733
-26.0452 16.0691 5.9487 0.8828
-26.2324 12.1005 5.6154 0.8889
-35.6384 11.4786 7.2779 0.8585
-56.7821 -24.8164 12.0454 0.7768
-40.8370 -24.0717 9.2143 0.8243
-32.5076 -24.8788 7.9570 0.8464
-26.7912 -26.1789 7.2811 0.8584
-26.9906 -33.6271 8.3816 0.8389
-27.4049 -44.1272 10.0970 0.8092
-34.4611 -74.1322 15.8907 0.7167
4.6993 -27.7295 5.4669 0.8917
8.3888 -28.2684 5.7317 0.8868
12.2602 -28.2791 5.9913 0.8820
3.8855 -6.6363 1.4948 0.9691
21.2069 -27.8796 6.8089 0.8670
18.8098 -19.3635 5.2474 0.8958
34.9737 -28.2414 8.7379 0.8326
58.4564 -36.5431 13.4003 0.7551
72.5617 -33.9916 15.5755 0.7214
21.5196 -7.0714 4.4031 0.9118
22.6473 -4.5174 4.4889 0.9102
23.5588 -1.8005 4.5927 0.9082
93.5962 15.5780 18.4435 0.6793
36.0459 10.5814 7.3023 0.8581
24.6725 10.6102 5.2205 0.8963
18.2006 10.5845 4.0926 0.9178
13.8747 10.4895 3.3810 0.9316
10.8862 10.5128 2.9417 0.9402
8.4136 10.3566 2.5937 0.9471
4.1422 6.5828 1.5118 0.9688
5.8073 12.3023 2.6444 0.9461
6.2536 18.8434 3.8592 0.9223
2.7377 13.5175 2.6809 0.9453
1.0569 13.3120 2.5957 0.9470
-0.5273 12.7370 2.4779 0.9494
-27.0469 63.4078 13.3997 0.7551
-30.4292 52.6816 11.8257 0.7804
-29.8048 39.6658 9.6443 0.8170
-26.3491 27.4467 7.3956 0.8564
-25.9960 21.2462 6.5261 0.8721
-26.0092 16.4733 5.9844 0.8821
-26.0879 12.4089 5.6154 0.8889
-34.8497 11.6798 7.1444 0.8609
-85.5689 -36.2023 18.0603 0.6848
-41.7114 -23.9292 9.3473 0.8221
-33.3110 -24.8766 8.0813 0.8442
-26.8413 -25.6163 7.2121 0.8597
-26.8360 -32.6386 8.2134 0.8418
-26.0817 -40.9125 9.4311 0.8206
4.3636 -27.7286 5.4562 0.8919
8.0272 -28.2674 5.7119 0.8872
11.8656 -28.2780 5.9610 0.8825
3.8131 -6.6922 1.4972 0.9691
21.0073 -28.3035 6.8514 0.8662
26.7526 -28.1977 7.5554 0.8535
34.2773 -28.3531 8.6468 0.8342
58.4342 -37.4943 13.4956 0.7536
69.9948 -33.8010 15.1090 0.7285
21.2717 -7.2689 4.3696 0.9125
22.2591 -4.7135 4.4227 0.9115
22.8897 -2.0211 4.4666 0.9106
93.5931 14.4458 18.4081 0.6798
43.6531 12.2575 8.8135 0.8313
25.4910 10.6079 5.3669 0.8936
18.5140 10.4766 4.1350 0.9170
14.2188 10.4886 3.4345 0.9305
11.1298 10.4972 2.9738 0.9396
8.5944 10.3281 2.6118 0.9467
4.1831 6.4772 1.4988 0.9691
5.8659 12.0562 2.6062 0.9468
6.2516 18.1199 3.7259 0.9249
2.9969 13.9497 2.7734 0.9435
1.2508 13.7049 2.6750 0.9455
-0.3759 12.7004 2.4698 0.9495
-2.4526 16.2072 3.1862 0.9354
-26.7311 64.7727 13.6206 0.7516
-29.8060 53.0367 11.8257 0.7804
-29.8370 40.6990 9.8093 0.8141
-25.9831 27.7120 7.3841 0.8566
-25.9996 21.7654 6.5909 0.8710
-26.0428 16.9281 6.0377 0.8811
-25.9959 12.7431 5.6275 0.8887
-34.8484 12.1382 7.1730 0.8604
-98.0790 -2.6135 19.0714 0.6705
-46.2077 -25.7894 10.2861 0.8060
-33.9571 -24.7410 8.1667 0.8427
-26.8778 -25.0524 7.1421 0.8609
-26.9547 -32.0063 8.1337 0.8432
-26.1998 -40.0483 9.3025 0.8228
-27.0443 -54.7617 11.8719 0.7797
4.0290 -27.7277 5.4463 0.8921
7.6680 -28.2664 5.6930 0.8875
11.4751 -28.2770 5.9318 0.8831
15.4437 -27.8636 6.1924 0.8783
20.4933 -28.3021 6.7921 0.8673
5.8763 -6.3418 1.6806 0.9654
33.3287 -28.2368 8.4909 0.8369
58.4510 -38.4855 13.6034 0.7519
68.0305 -33.8471 14.7701 0.7337
21.3591 -7.5811 4.4056 0.9118
21.8666 -4.9004 4.3559 0.9127
23.0241 -2.3068 4.4979 0.9100
43.1157 0.8947 8.3827 0.8388
93.2898 13.2749 18.3164 0.6811
45.8840 12.3022 9.2340 0.8240
26.4825 10.6561 5.5488 0.8902
19.0314 10.4752 4.2227 0.9153
15.1619 10.9106 3.6309 0.9267
11.3826 10.4849 3.0082 0.9389
8.7776 10.2988 2.6303 0.9464
4.2990 6.4876 1.5128 0.9688
5.9226 11.8165 2.5692 0.9476
6.2703 17.5023 3.6138 0.9270
3.4295 15.0946 3.0089 0.9389
1.3373 12.9620 2.5329 0.9483
-0.2258 12.6832 2.4658 0.9496
-2.2831 16.3904 3.2167 0.9348
-26.7301 66.9995 14.0216 0.7453
-29.7986 54.5183 12.0769 0.7763
-31.8622 44.5534 10.6470 0.8000
-25.9813 28.3732 7.4781 0.8549
-26.0331 22.3206 6.6657 0.8696
-26.0416 17.3673 6.0844 0.8802
-25.9948 13.1248 5.6604 0.8881
-31.8128 11.5031 6.5756 0.8712
-46.1507 -25.0486 10.2069 0.8074
-34.7835 -24.7207 8.2948 0.8404
-27.2399 -24.7964 7.1601 0.8606
-26.9841 -31.2851 8.0307 0.8451
-26.2883 -39.1678 9.1693 0.8251
-27.0399 -53.1646 11.5940 0.7842
3.6956 -27.7268 5.4372 0.8923
7.3111 -28.2654 5.6750 0.8878
10.9216 -27.8510 5.8151 0.8852
15.2456 -28.2875 6.2463 0.8773
19.9879 -28.3007 6.7348 0.8683
5.6995 -6.2983 1.6511 0.9660
32.6684 -28.3454 8.4072 0.8384
50.2593 -33.9477 11.7892 0.7810
66.3494 -33.9924 14.4911 0.7380
21.4497 -7.8992 4.4431 0.9111
22.2777 -5.2690 4.4498 0.9109
24.2138 -2.7147 4.7362 0.9055
42.9792 0.3850 8.3546 0.8393
47.2247 12.0668 9.4745 0.8199
16.5221 6.4229 3.4457 0.9303
20.3051 10.8663 4.4765 0.9104
15.5011 10.8797 3.6812 0.9257
11.6413 10.4722 3.0437 0.9382
8.9630 10.2686 2.6494 0.9460
7.1652 10.5408 2.4775 0.9494
5.9773 11.5828 2.5336 0.9483
6.4640 17.3942 3.6070 0.9272
5.6852 23.7246 4.7421 0.9054
1.4742 12.8081 2.5061 0.9488
-0.0766 12.7479 2.4780 0.9494
-29.7595 56.0057 12.3279 0.7723
-31.8591 45.6778 10.8252 0.7970
-27.9958 31.3062 8.1636 0.8427
-25.9967 22.8266 6.7248 0.8685
-20.8946 14.2935 4.9209 0.9020
-25.9937 13.5112 5.6945 0.8875
-30.6688 11.5000 6.3667 0.8751
-17.6772 -6.7523 3.6782 0.9258
-47.0878 -24.8433 10.3487 0.8050
-35.8815 -24.8695 8.4861 0.8370
-27.7909 -24.7051 7.2279 0.8594
-26.9820 -30.5472 7.9224 0.8470
-26.1472 -37.9823 8.9633 0.8287
-27.0356 -51.6403 11.3303 0.7886
-26.9303 -71.1801 14.7932 0.7334
4.0489 -33.3764 6.5353 0.8720
6.9565 -28.2644 5.6580 0.8882
10.5441 -27.8500 5.7885 0.8857
14.8172 -28.2863 6.2070 0.8780
19.4911 -28.2993 6.6793 0.8693
5.5903 -6.3260 1.6410 0.9662
38.1678 -33.9141 9.9247 0.8122
49.1499 -34.0490 11.6223 0.7838
64.4556 -33.9872 14.1640 0.7431
21.6731 -8.2729 4.5093 0.9098
22.0198 -5.4830 4.4109 0.9117
22.5725 -2.8005 4.4213 0.9115
42.4931 -0.1204 8.2599 0.8410
49.7761 12.0954 9.9570 0.8116
28.2308 10.5933 5.8611 0.8844
20.5418 10.6834 4.5007 0.9100
15.6138 10.6863 3.6778 0.9258
11.9133 10.4654 3.0823 0.9374
9.1507 10.2376 2.6691 0.9456
7.3321 10.5175 2.4921 0.9491
6.0302 11.3549 2.4991 0.9490
6.2463 16.2204 3.3786 0.9316
5.4798 21.7335 4.3568 0.9127
1.6405 12.9110 2.5298 0.9483
0.0735 12.7169 2.4720 0.9495
-1.5559 13.4904 2.6396 0.9462
-29.7899 57.6940 12.6213 0.7675
-31.7114 46.6282 10.9611 0.7947
-28.0518 32.1231 8.2898 0.8405
-28.0609 25.2311 7.3352 0.8575
-26.0391 18.2669 6.1827 0.8784
-26.0163 13.9150 5.7350 0.8867
-29.5923 11.4961 6.1710 0.8787
-48.4564 -24.8395 10.5844 0.8010
-36.7966 -24.8669 8.6327 0.8345
-28.4974 -24.7381 7.3353 0.8575
-26.9800 -29.8286 7.8180 0.8488
-26.1539 -37.0492 8.8152 0.8313
-27.0316 -50.1842 11.0799 0.7927
3.7102 -33.9253 6.6337 0.8702
6.6038 -28.2634 5.6418 0.8885
10.1701 -27.8489 5.7630 0.8862
14.3942 -28.2851 6.1691 0.8787
19.0022 -28.2979 6.6256 0.8703
5.5243 -6.4018 1.6436 0.9661
31.0543 -28.2554 8.1611 0.8428
47.3633 -33.6446 11.2929 0.7892
62.2155 -33.7494 13.7582 0.7494
79.7230 -31.5128 16.6633 0.7052
21.8457 -5.7140 4.3892 0.9121
23.5267 -3.2009 4.6153 0.9078
42.6952 -0.6242 8.3000 0.8403
52.4080 12.0824 10.4543 0.8032
28.7912 10.4181 5.9516 0.8827
21.1224 10.6710 4.6000 0.9081
16.0140 10.6851 3.7421 0.9246
12.1995 10.4646 3.1242 0.9366
9.3410 10.2057 2.6893 0.9452
7.5007 10.4935 2.5072 0.9488
6.0815 11.1326 2.4658 0.9496
5.9477 14.9180 3.1217 0.9367
6.2488 23.6063 4.7466 0.9053
1.9966 14.3580 2.8178 0.9426
0.2172 12.3603 2.4030 0.9509
-1.5247 14.7448 2.8814 0.9414
-29.7503 59.3226 12.8999 0.7631
-31.8525 48.0438 11.2048 0.7907
-28.0496 32.8952 8.4032 0.8385
-28.0592 25.8344 7.4139 0.8561
-26.0378 18.7279 6.2344 0.8775
-26.0152 14.3113 5.7715 0.8860
-28.5844 11.4942 5.9886 0.8820
-42.9084 11.4938 8.6346 0.8344
-49.8890 -24.8355 10.8326 0.7969
-36.9728 -24.3560 8.6060 0.8349
-29.3249 -24.8563 7.4724 0.8550
-26.9781 -29.1289 7.7174 0.8506
-26.1671 -36.1554 8.6754 0.8337
-27.0277 -48.7903 10.8418 0.7967
3.5229 -36.1507 7.0603 0.8624
6.2531 -28.2624 5.6265 0.8887
9.7991 -27.8479 5.7384 0.8867
13.9764 -28.2839 6.1324 0.8794
18.5212 -28.2966 6.5738 0.8713
5.4822 -6.5066 1.6538 0.9659
30.2991 -28.2283 8.0495 0.8447
46.1957 -33.6414 11.1083 0.7923
60.9111 -33.9773 13.5574 0.7526
24.1086 -9.8598 5.0630 0.8993
23.9111 -6.5562 4.8194 0.9039
22.8171 -3.3787 4.4836 0.9103
42.3273 -1.1181 8.2305 0.8415
56.1750 12.2555 11.1762 0.7911
30.5384 10.6448 6.2863 0.8765
21.7158 10.6512 4.7015 0.9061
16.4284 10.6840 3.8093 0.9233
12.5901 10.5447 3.1922 0.9353
9.5511 10.1914 2.7150 0.9447
7.6712 10.4689 2.5228 0.9485
6.1124 10.8822 2.4261 0.9504
5.9463 14.4180 3.0316 0.9384
4.4426 16.0170 3.2309 0.9345
2.1535 14.2527 2.8019 0.9430
0.3527 12.0117 2.3358 0.9522
-1.2137 13.2649 2.5892 0.9472
-31.4208 64.5416 13.9533 0.7464
-31.7587 49.1508 11.3748 0.7878
-28.0474 33.6892 8.5209 0.8364
-28.0575 26.4505 7.4953 0.8546
-26.0365 19.1967 6.2879 0.8765
-26.0489 14.7325 5.8171 0.8852
-27.5474 11.4562 5.7993 0.8855
-42.0160 11.7874 8.4824 0.8371
-30.0128 4.6253 5.9028 0.8836
-83.8465 2.7095 16.3066 0.7105
-51.3901 -24.8314 11.0942 0.7925
-37.4798 -24.0614 8.6574 0.8340
-30.0334 -24.8543 7.5777 0.8531
-26.9447 -28.4134 7.6115 0.8525
-26.0657 -35.1358 8.5039 0.8367
-27.0240 -47.4548 10.6151 0.8005
-29.7712 -70.9965 14.9645 0.7307
5.9044 -28.2613 5.6120 0.8890
9.4313 -27.8469 5.7149 0.8871
13.5633 -28.2828 6.0971 0.8800
18.0474 -28.2952 6.5236 0.8722
23.0747 -28.0507 7.0603 0.8624
29.6286 -28.2637 7.9594 0.8463
45.3237 -33.8316 10.9938 0.7942
59.2367 -33.9651 13.2729 0.7571
15.0373 -6.3578 3.1735 0.9356
21.4361 -6.1503 4.3349 0.9131
22.9991 -3.6833 4.5275 0.9095
41.8416 -1.5990 8.1391 0.8431
59.5803 12.2641 11.8241 0.7805
31.4509 10.5487 6.4481 0.8736
22.7423 10.8239 4.8958 0.9025
16.8582 10.6828 3.8794 0.9219
12.8951 10.5438 3.2378 0.9344
9.7787 10.1906 2.7453 0.9441
7.8436 10.4435 2.5388 0.9482
6.1157 10.5935 2.3777 0.9514
3.7307 -39.3921 6.2670 0.8519
6.2071 -28.4201 4.6074 0.8889
9.7424 -27.9286 4.6849 0.8871
13.9070 -28.3370 4.9995 0.8800
18.4100 -28.2942 5.3465 0.8722
5.4766 -6.5359 1.3506 0.9661
30.2422 -28.3292 6.5632 0.8455
38.5735 -28.2514 7.5728 0.8240
60.5224 -33.9762 10.9930 0.7550
23.3235 -9.6128 3.9955 0.9029
21.4839 -5.9535 3.5310 0.9137
23.4327 -3.5350 3.7534 0.9085
44.6302 -1.3002 7.0717 0.8346
56.6353 12.1948 9.1757 0.7909
30.7012 10.6082 5.1447 0.8767
21.9018 10.6688 3.8586 0.9060
16.1758 10.4572 3.0507 0.9250
12.4654 10.3828 2.5695 0.9364
9.9721 10.5828 2.3031 0.9428
7.8910 10.7077 2.1067 0.9476
6.2319 11.0248 2.0058 0.9500
6.2430 15.0217 2.5765 0.9362
6.0598 21.6194 3.5561 0.9131
3.2456 21.0928 3.3801 0.9172
0.8380 26.1183 4.1389 0.8996
-31.6184 65.3979 11.5051 0.7451
-30.0142 46.7289 8.7963 0.7986
-25.9729 31.3704 6.4505 0.8479
-25.8112 24.4657 5.6328 0.8659
-27.4593 20.3611 5.4143 0.8707
-28.0734 15.9783 5.1161 0.8774
-32.1297 13.4643 5.5176 0.8684
-40.6654 11.5276 6.6946 0.8427
-83.2663 2.9171 13.1962 0.7136
-51.7465 -24.8304 9.0906 0.7926
-38.6743 -24.6800 7.2664 0.8304
-30.2375 -24.8851 6.2025 0.8533
-27.1599 -28.4850 6.2337 0.8527
-26.9099 -36.0685 7.1274 0.8334
-27.0232 -47.1552 8.6081 0.8024
3.6795 -44.4246 7.0603 0.8348
5.8351 -28.3140 4.5787 0.8895
9.3819 -27.9505 4.6697 0.8875
13.5084 -28.3655 4.9761 0.8805
17.9385 -28.2937 5.3061 0.8731
23.1588 -28.3095 5.7930 0.8623
29.5345 -28.3272 6.4816 0.8473
37.6866 -28.2904 7.4636 0.8263
58.8773 -33.9717 10.7662 0.7594
80.0901 -34.1191 13.7881 0.7029
21.2777 -6.1674 3.5088 0.9142
21.9223 -3.5720 3.5179 0.9140
42.6013 -1.7440 6.7530 0.8414
60.3984 12.2618 9.7613 0.7791
31.8934 10.6009 5.3232 0.8727
22.7228 10.7391 3.9806 0.9032
16.5942 10.4524 3.1062 0.9236
12.7169 10.3408 2.5960 0.9358
10.2096 10.5821 2.3289 0.9422
8.0870 10.7072 2.1252 0.9471
6.2086 10.6874 1.9576 0.9512
6.2417 14.5325 2.5050 0.9380
6.2606 21.3636 3.5260 0.9138
4.6640 28.1027 4.5119 0.8910
0.9952 22.6747 3.5948 0.9122
-30.6714 65.3953 11.4402 0.7464
-29.6027 47.3056 8.8386 0.7977
-26.0058 32.1749 6.5525 0.8457
-25.8096 25.0484 5.6965 0.8645
-26.7908 20.3592 5.3295 0.8726
-28.0722 16.4187 5.1508 0.8766
-31.2882 13.5475 5.4002 0.8710
-38.8947 11.5227 6.4250 0.8485
-82.3861 3.8592 13.0630 0.7160
-53.4578 -24.8806 9.3390 0.7876
-39.6690 -24.6616 7.3981 0.8276
-31.0402 -24.9379 6.3064 0.8511
-26.9819 -27.6385 6.1176 0.8552
-26.9939 -35.3050 7.0390 0.8353
-26.2122 -44.5152 8.1820 0.8112
-31.0509 -71.1369 12.2936 0.7303
1.4944 -21.0578 3.3434 0.9181
5.4771 -28.2579 4.5589 0.8900
9.1193 -28.2685 4.7045 0.8867
13.0953 -28.3543 4.9467 0.8812
17.4734 -28.2923 5.2668 0.8740
22.1828 -27.7782 5.6303 0.8659
28.3442 -27.8345 6.2920 0.8514
35.7773 -27.5224 7.1493 0.8329
47.6994 -28.2768 8.7826 0.7989
20.8047 -6.2971 3.4428 0.9157
22.0869 -3.8666 3.5514 0.9132
42.1575 -2.2239 6.6864 0.8428
63.0256 12.0234 10.1623 0.7712
33.3090 10.6371 5.5381 0.8680
23.1952 10.6297 4.0412 0.9018
17.0343 10.4512 3.1653 0.9223
12.9731 10.2975 2.6234 0.9351
10.4526 10.5815 2.3558 0.9415
8.2867 10.7066 2.1443 0.9466
6.3775 10.6861 1.9710 0.9509
6.1205 13.7995 2.3910 0.9407
6.2581 20.4583 3.3885 0.9170
5.4173 30.4169 4.8934 0.8824
1.3448 24.1416 3.8296 0.9067
-3.8065 58.5217 9.2885 0.7886
-29.7348 65.3928 11.3777 0.7476
-29.8142 48.9164 9.0732 0.7929
-26.0037 32.9595 6.6494 0.8436
-25.9883 25.8236 5.8027 0.8621
-26.1428 20.3574 5.2479 0.8744
-28.0709 16.8653 5.1867 0.8758
-30.2972 13.5448 5.2563 0.8742
-37.2606 11.5182 6.1770 0.8539
-81.9044 4.8050 12.9947 0.7173
-21.6446 -6.7718 3.5921 0.9122
-55.0167 -24.8213 9.5596 0.7831
-39.9570 -24.1923 7.3981 0.8276
-31.7283 -24.8810 6.3862 0.8493
-26.9801 -26.9926 6.0447 0.8568
-27.0009 -34.4645 6.9344 0.8375
-26.2089 -43.3330 8.0210 0.8146
5.1323 -28.2580 4.5489 0.8902
8.7339 -28.2078 4.6769 0.8873
12.6968 -28.3652 4.9221 0.8817
17.0154 -28.2914 5.2289 0.8749
21.6503 -27.7767 5.5779 0.8671
27.7467 -27.8978 6.2319 0.8527
35.0091 -27.5944 7.0603 0.8348
46.6083 -28.3778 8.6427 0.8017
80.3399 -36.4865 13.9754 0.6995
20.6419 -6.5144 3.4283 0.9161
21.4045 -4.0078 3.4491 0.9156
42.7838 -2.7630 6.7904 0.8406
93.5929 16.7138 15.0582 0.6804
34.7034 10.6332 5.7487 0.8633
23.5599 10.4626 4.0829 0.9009
17.6266 10.5307 3.2521 0.9202
13.2344 10.2528 2.6515 0.9344
10.7013 10.5808 2.3835 0.9409
8.4899 10.7061 2.1641 0.9462
6.5651 10.7114 1.9898 0.9504
6.1193 13.3693 2.3288 0.9422
6.0227 18.8896 3.1402 0.9228
4.9248 25.8806 4.1726 0.8988
1.5217 22.5304 3.5766 0.9126
-0.7376 13.8606 2.1984 0.9453
-28.2371 64.0937 11.0930 0.7530
-29.8105 50.2335 9.2517 0.7893
-25.9664 33.7223 6.7410 0.8417
-26.0215 26.4735 5.8794 0.8604
-25.9974 20.7410 5.2675 0.8740
-28.0697 17.3181 5.2239 0.8750
-29.3576 13.5421 5.1206 0.8773
-35.6384 11.4787 5.9301 0.8593
-56.7821 -24.8164 9.8148 0.7781
-40.8037 -24.0521 7.5019 0.8255
-32.5076 -24.8788 6.4835 0.8472
-27.0335 -26.4157 5.9864 0.8581
-27.1748 -33.8567 6.8761 0.8388
-26.2057 -42.1963 7.8672 0.8178
4.7307 -27.9146 4.4843 0.8917
8.4111 -28.3434 4.6827 0.8872
12.2825 -28.3306 4.8907 0.8824
3.8855 -6.6363 1.2180 0.9693
21.1275 -27.7753 5.5272 0.8682
18.8082 -19.3619 4.2753 0.8964
34.6813 -28.0052 7.0603 0.8348
45.2998 -28.3184 8.4614 0.8054
72.5617 -33.9916 12.6912 0.7229
20.8797 -6.8611 3.4810 0.9148
21.3907 -4.2668 3.4547 0.9155
41.8500 -3.1985 6.6477 0.8437
93.5897 15.5769 15.0271 0.6810
36.0459 10.5814 5.9500 0.8589
25.2361 10.8526 4.3509 0.8947
18.2006 10.5845 3.3347 0.9183
13.5007 10.2068 2.6806 0.9338
10.9559 10.5801 2.4123 0.9402
8.6948 10.7028 2.1840 0.9457
4.1421 6.5826 1.2318 0.9690
6.1182 12.9609 2.2700 0.9436
6.0305 18.1711 3.0324 0.9254
4.4377 21.9109 3.5408 0.9134
1.1724 14.7669 2.3462 0.9418
-0.9199 22.2198 3.5223 0.9139
-27.3385 64.0912 11.0360 0.7541
-29.8067 51.6039 9.4387 0.7856
-31.8681 42.4118 8.4023 0.8067
-26.0145 27.0982 5.9496 0.8589
-25.9960 21.2462 5.3176 0.8729
-27.9242 17.6861 5.2352 0.8747
-28.4651 13.5397 4.9925 0.8802
-34.2379 11.4748 5.7192 0.8640
-30.0118 6.1706 4.8528 0.8833
-82.3390 -34.8357 14.1603 0.6962
-41.9204 -24.0490 7.6545 0.8222
-33.5116 -25.0264 6.6244 0.8442
-27.0318 -25.7982 5.9183 0.8596
-26.9964 -32.8337 6.7325 0.8419
-26.2027 -41.1023 7.7203 0.8209
4.3927 -27.9137 4.4755 0.8919
8.0711 -28.4222 4.6796 0.8872
11.8398 -28.2164 4.8465 0.8834
3.8130 -6.6922 1.2199 0.9693
20.9191 -28.1847 5.5592 0.8675
26.7240 -28.1676 6.1497 0.8545
33.6823 -27.8609 6.9233 0.8378
44.0961 -28.2943 8.2983 0.8088
70.0220 -33.8141 12.3158 0.7299
23.1407 -7.9076 3.8732 0.9057
21.1860 -4.4862 3.4299 0.9160
41.8989 -3.6996 6.6620 0.8434
93.5866 14.4448 14.9982 0.6815
43.9465 12.3399 7.2296 0.8312
25.6125 10.6585 4.3939 0.8937
18.5140 10.4766 3.3693 0.9175
13.7989 10.1788 2.7158 0.9329
11.2169 10.5793 2.4421 0.9395
8.8862 10.6787 2.2003 0.9453
4.1831 6.4771 1.2212 0.9693
6.1648 12.6705 2.2317 0.9445
6.0708 17.5959 2.9481 0.9274
4.6866 21.8144 3.5339 0.9136
1.3575 14.8733 2.3655 0.9413
-0.4166 14.0784 2.2308 0.9446
-28.4997 69.0582 11.8326 0.7389
-29.8027 53.0309 9.6348 0.7816
-31.7857 43.3571 8.5148 0.8043
-25.9831 27.7121 6.0167 0.8574
-27.1812 22.7545 5.6145 0.8663
-28.0671 18.2438 5.3020 0.8732
-28.0795 13.7645 4.9530 0.8810
-33.4814 11.6620 5.6154 0.8662
-98.0790 -2.6135 15.5397 0.6721
-86.4213 -35.3675 14.7897 0.6851
-43.0835 -24.0458 7.8146 0.8189
-34.1400 -24.8743 6.6903 0.8428
-26.9750 -25.1430 5.8405 0.8613
-26.9942 -32.0532 6.6372 0.8439
-26.1998 -40.0483 7.5798 0.8238
-27.0443 -54.7617 9.6734 0.7809
4.0559 -27.9128 4.4674 0.8921
7.7296 -28.4935 4.6760 0.8873
11.4743 -28.2750 4.8330 0.8838
15.4885 -27.9446 5.0604 0.8786
20.4929 -28.3016 5.5343 0.8680
5.8007 -6.2602 1.3517 0.9660
32.9457 -27.9123 6.8391 0.8396
42.9503 -28.2795 8.1448 0.8120
68.3337 -33.9979 12.0885 0.7341
22.1980 -7.8788 3.7307 0.9090
21.1048 -4.7297 3.4256 0.9161
42.3873 -4.2468 6.7471 0.8415
93.2886 13.2747 14.9243 0.6828
46.1259 12.3670 7.5636 0.8242
26.4825 10.6561 4.5212 0.8908
19.0314 10.4752 3.4407 0.9158
14.1437 10.1779 2.7599 0.9319
11.4503 10.5473 2.4657 0.9389
9.0802 10.6539 2.2171 0.9449
4.2989 6.4875 1.2326 0.9690
6.2147 12.3994 2.1967 0.9454
6.2498 17.4448 2.9350 0.9277
5.0915 22.4098 3.6398 0.9111
2.2689 21.9917 3.5016 0.9144
-0.2439 13.7000 2.1702 0.9460
-27.6835 69.3894 11.8326 0.7389
-29.7986 54.5183 9.8405 0.7775
-31.8622 44.5535 8.6754 0.8011
-25.9813 28.3732 6.0933 0.8557
-26.9111 23.0734 5.6145 0.8663
-28.0658 18.7172 5.3430 0.8723
-28.0784 14.1768 4.9819 0.8804
-33.3416 12.0559 5.6154 0.8662
-84.5096 -33.4279 14.3941 0.6921
-44.2968 -24.0424 7.9827 0.8154
-34.9964 -24.8719 6.8001 0.8404
-27.3461 -24.8932 5.8570 0.8609
-27.0472 -31.3583 6.5589 0.8456
-26.1969 -39.0316 7.4453 0.8266
-27.0399 -53.1646 9.4470 0.7854
3.8269 -28.7118 4.5877 0.8893
7.3951 -28.5903 4.6773 0.8873
10.9534 -27.9319 4.7520 0.8856
15.2450 -28.2864 5.0894 0.8780
19.9875 -28.3001 5.4875 0.8691
5.6783 -6.2749 1.3404 0.9663
32.4331 -28.1413 6.8010 0.8404
41.8393 -28.2605 7.9967 0.8151
66.3494 -33.9924 11.8076 0.7394
21.9445 -8.0814 3.7039 0.9096
20.8040 -4.9205 3.3859 0.9171
23.9073 -2.6803 3.8103 0.9072
97.4236 12.6935 15.5608 0.6717
47.3408 12.0965 7.7390 0.8205
16.5207 6.4224 2.8073 0.9307
20.3609 10.8962 3.6576 0.9107
14.8960 10.4550 2.8824 0.9289
11.6836 10.5102 2.4891 0.9383
9.2769 10.6283 2.2344 0.9445
7.2798 10.7094 2.0510 0.9489
6.2349 12.0820 2.1534 0.9464
6.2480 16.8129 2.8408 0.9299
6.8980 28.7856 4.6883 0.8870
3.7249 32.3635 5.1597 0.8764
-0.0822 13.6870 2.1678 0.9461
-26.8638 69.7108 11.8326 0.7389
-18.1456 34.1491 6.1248 0.8550
-31.7147 45.4707 8.7806 0.7989
-26.0144 29.0905 6.1811 0.8538
-26.6373 23.3890 5.6145 0.8663
-28.0644 19.1982 5.3855 0.8714
-28.0772 14.5942 5.0119 0.8797
-33.1972 12.4480 5.6154 0.8662
-84.1736 -0.2579 13.3319 0.7111
-45.5631 -24.0389 8.1593 0.8117
-35.9604 -24.9242 6.9299 0.8376
-28.1972 -25.0664 5.9755 0.8583
-26.9900 -30.5562 6.4572 0.8478
-26.4862 -38.4747 7.3981 0.8276
-27.0356 -51.6403 9.2321 0.7897
4.0401 -33.3037 5.3135 0.8730
7.0402 -28.6044 4.6657 0.8875
10.5747 -27.9309 4.7303 0.8861
14.8162 -28.2844 5.0572 0.8787
19.4902 -28.2979 5.4422 0.8701
5.5751 -6.3088 1.3335 0.9665
31.8875 -28.3338 6.7562 0.8413
49.1499 -34.0490 9.4701 0.7849
64.4212 -33.9690 11.5349 0.7446
22.4738 -8.5786 3.8100 0.9072
20.9365 -5.2132 3.4173 0.9163
23.5478 -2.9215 3.7582 0.9084
51.1336 12.4253 8.3344 0.8081
28.1983 10.5811 4.7703 0.8852
20.5418 10.6834 3.6672 0.9105
15.3464 10.5033 2.9454 0.9275
11.9208 10.4721 2.5131 0.9378
9.4764 10.6020 2.2522 0.9440
7.4655 10.7089 2.0676 0.9485
6.2339 11.7384 2.1051 0.9476
6.2464 16.2204 2.7530 0.9320
6.2521 24.7965 4.0503 0.9016
2.7125 21.3484 3.4084 0.9165
0.0787 13.6226 2.1576 0.9463
-26.7167 71.8423 12.1400 0.7331
-17.6202 34.1249 6.0828 0.8560
-31.2322 45.9237 8.7963 0.7986
-26.0125 29.7878 6.2636 0.8520
-26.3596 23.7014 5.6145 0.8663
-28.0631 19.6867 5.4294 0.8704
-28.0487 15.0020 5.0380 0.8791
-33.0481 12.8386 5.6154 0.8662
-82.5437 0.7204 13.0741 0.7158
-46.8874 -24.0352 8.3451 0.8078
-36.7914 -24.8634 7.0330 0.8354
-28.6818 -24.8982 6.0156 0.8574
-26.9657 -29.8128 6.3669 0.8498
-26.9380 -38.1598 7.3981 0.8276
-27.0316 -50.1841 9.0281 0.7939
3.6492 -33.3674 5.3164 0.8729
6.6562 -28.4875 4.6335 0.8883
10.1996 -27.9299 4.7094 0.8865
14.3628 -28.2234 5.0157 0.8796
19.0010 -28.2961 5.3984 0.8711
5.5138 -6.3896 1.3367 0.9664
31.1382 -28.3317 6.6677 0.8432
47.7803 -33.9409 9.2827 0.7887
62.0979 -33.6856 11.1892 0.7512
23.4620 -9.2740 3.9958 0.9029
21.7101 -5.6785 3.5542 0.9131
24.4445 -3.3258 3.9073 0.9049
45.6302 -0.6671 7.2279 0.8313
52.4081 12.0824 8.5184 0.8043
28.8735 10.4478 4.8633 0.8831
21.1224 10.6710 3.7481 0.9086
15.7049 10.4789 2.9903 0.9264
12.1623 10.4328 2.5379 0.9372
9.6869 10.5836 2.2724 0.9436
7.6543 10.7084 2.0848 0.9481
6.2330 11.4099 2.0592 0.9487
6.2448 15.6632 2.6707 0.9340
6.2671 23.6752 3.8789 0.9056
2.9522 21.2301 3.3949 0.9169
0.4192 23.8588 3.7794 0.9079
-31.8198 63.4492 11.2423 0.7502
-30.6888 46.2886 8.7963 0.7986
-26.0105 30.5038 6.3493 0.8501
-26.0784 24.0106 5.6145 0.8663
-28.0617 20.1836 5.4748 0.8694
-28.0749 15.4443 5.0750 0.8783
-32.8944 13.2273 5.6154 0.8662
-42.9085 11.4938 7.0356 0.8354
-82.9430 1.7016 13.1397 0.7146
-49.8890 -24.8355 8.8266 0.7980
-37.6053 -24.7726 7.1323 0.8333
-29.3618 -24.8876 6.0963 0.8557
-26.9861 -29.1375 6.2902 0.8514
-26.8214 -37.0594 7.2456 0.8309
-27.1599 -49.0288 8.8773 0.7969
3.8388 -39.3924 6.2687 0.8519
6.2919 -28.4377 4.6130 0.8887
9.8276 -27.9288 4.6894 0.8870
13.9966 -28.3247 5.0040 0.8799
18.5198 -28.2944 5.3560 0.8720
5.4787 -6.5024 1.3467 0.9662
30.4079 -28.3296 6.5824 0.8451
38.7951 -28.2520 7.6012 0.8234
60.6187 -33.8142 10.9938 0.7549
23.3265 -9.5400 3.9916 0.9030
21.6071 -5.9245 3.5486 0.9133
22.3619 -3.3113 3.5804 0.9125
43.6127 -1.1521 6.9100 0.8380
56.2568 12.2733 9.1198 0.7920
30.5017 10.6320 5.1161 0.8774
21.7524 10.6692 3.8374 0.9065
16.0861 10.4614 3.0392 0.9252
12.4081 10.3923 2.5635 0.9366
9.9181 10.5830 2.2972 0.9430
7.8463 10.7078 2.1025 0.9477
6.2321 11.0954 2.0156 0.9498
6.2433 15.1382 2.5936 0.9358
6.0806 21.9227 3.6033 0.9120
3.1998 21.1776 3.3923 0.9169
0.7514 25.5914 4.0550 0.9015
-31.8380 65.3986 11.5204 0.7448
-30.1410 46.6472 8.7963 0.7986
-26.0084 31.2401 6.4382 0.8482
-25.8116 24.3333 5.6184 0.8662
-27.6163 20.3615 5.4343 0.8703
-28.0737 15.8776 5.1083 0.8776
-32.2322 13.4045 5.5290 0.8682
-40.9684 11.4934 6.7393 0.8417
-83.1456 2.6868 13.1759 0.7140
-19.9360 -6.8176 3.3371 0.9182
-51.3901 -24.8314 9.0398 0.7936
-38.4444 -24.6806 7.2358 0.8311
-30.0713 -24.8856 6.1822 0.8538
-27.1428 -28.6223 6.2476 0.8524
-26.9089 -36.2725 7.1533 0.8328
-27.0240 -47.4548 8.6494 0.8016
3.8002 -44.4145 7.0603 0.8348
5.9191 -28.3320 4.5842 0.8894
9.4587 -27.9278 4.6701 0.8874
13.6042 -28.3681 4.9830 0.8804
18.0467 -28.2940 5.3153 0.8729
23.2878 -28.3098 5.8060 0.8620
29.6957 -28.3277 6.5001 0.8469
45.4615 -33.9344 8.9851 0.7947
59.2498 -33.9727 10.8174 0.7584
15.0345 -6.3567 2.5853 0.9360
20.8561 -5.9838 3.4366 0.9159
21.9166 -3.5099 3.5155 0.9140
42.8536 -1.6376 6.7923 0.8406
59.5804 12.2641 9.6344 0.7816
31.7276 10.6415 5.3003 0.8733
22.7215 10.8141 3.9855 0.9031
16.4951 10.4527 3.0930 0.9240
12.6587 10.3505 2.5898 0.9359
10.1546 10.5823 2.3229 0.9423
8.0417 10.7073 2.1209 0.9472
6.2057 10.7494 1.9659 0.9510
3.7985 -40.1075 4.9467 0.8501
10.6715 -48.8610 6.1408 0.8175
9.7424 -27.9286 3.6318 0.8876
17.1007 -34.8446 4.7658 0.8552
22.4595 -34.5178 5.0564 0.8471
5.4790 -6.5388 1.0475 0.9662
30.3005 -28.3838 5.0978 0.8459
38.1427 -27.9359 5.8051 0.8265
49.6234 -27.8577 6.9874 0.7951
22.3122 -9.1960 2.9632 0.9073
41.2348 -6.2206 5.1203 0.8453
86.5520 -2.5216 10.6318 0.7054
56.6353 12.1948 7.1133 0.7918
30.7532 10.6261 3.9951 0.8771
21.5159 10.4808 2.9386 0.9081
16.3426 10.5651 2.3894 0.9246
12.8391 10.6940 2.0516 0.9349
10.0841 10.7016 1.8054 0.9425
8.0365 10.9052 1.6633 0.9469
6.3098 11.1625 1.5744 0.9496
6.2430 15.0217 1.9974 0.9365
6.1874 22.0749 2.8149 0.9117
3.4388 22.3485 2.7763 0.9129
1.7728 55.2562 6.7881 0.8003
-29.4069 85.9266 11.1512 0.6935
-29.2342 60.4667 8.2466 0.7629
-29.8211 46.4282 6.7753 0.8006
-28.0469 33.8754 5.4000 0.8376
-28.0571 26.5946 4.7467 0.8557
-27.4593 20.3611 4.1973 0.8713
-26.0487 14.8259 3.6801 0.8862
-27.4206 11.4909 3.6505 0.8871
-42.0157 11.9104 5.3621 0.8386
-84.6309 2.9649 10.3977 0.7109
-51.7181 -24.8168 7.0434 0.7936
-38.9656 -24.8659 5.6756 0.8300
-30.2375 -24.8851 4.8083 0.8540
-26.9838 -28.3003 4.8012 0.8542
-27.1820 -36.4332 5.5813 0.8326
-27.0312 -47.1692 6.6753 0.8032
3.7276 -45.0054 5.5449 0.8336
5.9043 -28.6494 3.5916 0.8888
9.3819 -27.9505 3.6201 0.8880
16.4303 -34.5011 4.6920 0.8573
21.8837 -34.5162 5.0181 0.8481
23.2042 -28.3649 4.4997 0.8627
29.5641 -28.3556 5.0298 0.8478
37.7662 -28.3501 5.7983 0.8267
49.0136 -28.2804 6.9480 0.7961
80.0901 -34.1191 10.6890 0.7041
22.7419 -6.5918 2.9073 0.9090
42.1875 -6.8739 5.2483 0.8418
65.8419 -2.6954 8.0911 0.7668
60.3106 12.2440 7.5563 0.7804
31.9592 10.6228 4.1352 0.8731
22.1242 10.4562 3.0046 0.9061
16.7712 10.5639 2.4337 0.9232
13.1502 10.6931 2.0811 0.9340
10.3243 10.7010 1.8257 0.9418
8.2726 10.9528 1.6853 0.9462
6.3089 10.8601 1.5421 0.9506
6.2417 14.5326 1.9420 0.9382
6.2606 21.3637 2.7334 0.9142
3.9223 23.6335 2.9415 0.9080
2.4304 55.3755 6.8058 0.7998
-29.2291 62.3202 8.4518 0.7577
-29.7828 47.5934 6.8936 0.7975
-28.0447 34.6973 5.4779 0.8354
-27.9108 27.0876 4.7756 0.8549
-26.7908 20.3592 4.1316 0.8732
-26.0128 15.2142 3.7001 0.8856
-26.5329 11.4885 3.5501 0.8900
-42.0142 12.4469 5.3803 0.8381
-53.1332 -24.7295 7.1959 0.7896
-39.9930 -24.8630 5.7821 0.8271
-30.8891 -24.8165 4.8651 0.8524
-26.9819 -27.6385 4.7426 0.8558
-27.0033 -35.3173 5.4587 0.8360
-27.0829 -45.9939 6.5537 0.8065
-30.9880 -70.9928 9.5110 0.7319
1.4942 -21.0548 2.5919 0.9185
5.4927 -28.3382 3.5443 0.8902
9.1332 -28.3118 3.6526 0.8870
15.9335 -34.4997 4.6660 0.8580
17.6115 -28.5157 4.1152 0.8737
22.3308 -27.9636 4.3939 0.8657
28.8418 -28.3232 4.9634 0.8497
36.8499 -28.3476 5.7085 0.8291
47.8705 -28.3782 6.8329 0.7991
64.3697 -28.3232 8.6349 0.7532
22.6559 -6.8574 2.9064 0.9090
25.7730 -4.5119 3.2127 0.8999
64.6656 -3.4112 7.9510 0.7703
64.2196 12.2512 8.0274 0.7684
33.3090 10.6371 4.2933 0.8686
22.7708 10.4353 3.0755 0.9040
17.1520 10.5235 2.4708 0.9221
13.4705 10.6922 2.1117 0.9330
10.5700 10.7003 1.8468 0.9412
8.4767 10.9522 1.7005 0.9457
6.4367 10.7854 1.5422 0.9506
6.2404 14.0698 1.8899 0.9399
6.2581 20.4583 2.6269 0.9174
3.9497 22.1768 2.7658 0.9132
3.1728 56.9547 7.0040 0.7946
-29.0917 63.9785 8.6296 0.7533
-31.8409 52.2417 7.5120 0.7815
-28.0423 35.5435 5.5589 0.8332
-27.6253 27.4502 4.7818 0.8547
-26.1428 20.3574 4.0684 0.8750
-26.0116 15.6280 3.7259 0.8849
-26.0575 11.6494 3.5046 0.8913
-42.0127 12.9871 5.3994 0.8376
-49.8504 2.9245 6.1314 0.8177
-54.6822 -24.6704 7.3658 0.7852
-41.1817 -24.9338 5.9111 0.8236
-31.5605 -24.7494 4.9246 0.8508
-26.9801 -26.9926 4.6860 0.8574
-27.0009 -34.4645 5.3757 0.8382
-27.0293 -44.6894 6.4127 0.8102
3.3941 -57.4010 7.0603 0.7932
5.1213 -28.1977 3.5189 0.8909
8.8039 -28.4339 3.6548 0.8870
15.4420 -34.4983 4.6408 0.8587
16.9790 -28.2307 4.0449 0.8757
21.7948 -27.9621 4.3531 0.8669
27.8273 -27.9789 4.8452 0.8530
35.9613 -28.3450 5.6222 0.8315
46.6032 -28.3747 6.6993 0.8026
62.4422 -28.3582 8.4206 0.7585
27.2047 -8.5856 3.5027 0.8914
22.9755 -4.3019 2.8701 0.9101
43.1141 -2.7843 5.3048 0.8402
93.5929 16.7138 11.6736 0.6817
35.2310 10.7948 4.5243 0.8620
23.3508 10.3697 3.1371 0.9022
17.5211 10.4676 2.5060 0.9210
13.8004 10.6913 2.1435 0.9321
10.8215 10.6996 1.8685 0.9405
8.6847 10.9517 1.7162 0.9452
6.6101 10.7849 1.5531 0.9503
6.2392 13.6312 1.8407 0.9414
6.2558 19.6208 2.5286 0.9204
4.4317 23.2892 2.9109 0.9089
1.6409 24.2942 2.9897 0.9065
-3.0159 56.6732 6.9684 0.7956
-28.2371 64.0937 8.5996 0.7541
-31.8370 53.6483 7.6598 0.7777
-27.9021 36.2362 5.6154 0.8317
-26.9798 27.4484 4.7257 0.8563
-25.9974 20.7410 4.0835 0.8746
-28.0697 17.3181 4.0497 0.8755
-26.0565 12.0194 3.5233 0.8908
-35.6384 11.4787 4.5972 0.8599
-50.0048 3.5255 6.1550 0.8171
-56.7821 -24.8164 7.6087 0.7790
-41.9508 -24.7283 5.9792 0.8218
-32.2903 -24.7126 4.9926 0.8489
-26.9784 -26.3618 4.6314 0.8590
-27.1748 -33.8567 5.3305 0.8395
-27.2025 -43.8013 6.3309 0.8124
4.7307 -27.9146 3.4764 0.8922
8.5067 -28.6655 3.6714 0.8865
15.1041 -34.8389 4.6624 0.8581
3.8855 -6.6362 0.9442 0.9695
21.2685 -27.9607 4.3135 0.8680
18.8066 -19.3603 3.3141 0.8969
35.0987 -28.3423 5.5392 0.8338
44.6181 -27.8922 6.4608 0.8089
60.5067 -28.3444 8.2041 0.7639
24.9144 -8.1870 3.2200 0.8997
23.0838 -4.6045 2.8902 0.9095
42.7469 -3.2670 5.2640 0.8413
93.5897 15.5769 11.6494 0.6823
36.0459 10.5814 4.6126 0.8595
24.1083 10.3676 3.2222 0.8996
17.9001 10.4097 2.5425 0.9199
14.1403 10.6904 2.1766 0.9311
11.0790 10.6989 1.8911 0.9398
8.8559 10.9012 1.7245 0.9450
4.1420 6.5825 0.9549 0.9691
6.2380 13.2147 1.7943 0.9428
6.2536 18.8435 2.4378 0.9231
4.7685 23.5440 2.9495 0.9077
1.1709 14.7474 1.8165 0.9421
-2.3494 56.7488 6.9738 0.7954
-27.3384 64.0912 8.5554 0.7552
-31.7362 54.9445 7.7908 0.7744
-27.4730 36.5625 5.6154 0.8317
-26.3491 27.4467 4.6716 0.8578
-25.9960 21.2462 4.1223 0.8735
-27.9242 17.6862 4.0585 0.8753
-26.0555 12.3935 3.5427 0.8902
-34.8497 11.6798 4.5129 0.8623
-43.4185 -24.9085 6.1461 0.8173
-33.0402 -24.6744 5.0633 0.8469
-26.9767 -25.7456 4.5787 0.8605
-26.9964 -32.8337 5.2192 0.8426
-27.0229 -42.3890 6.1724 0.8166
4.3927 -27.9137 3.4695 0.8924
10.7809 -37.9643 4.8457 0.8530
12.0410 -28.6959 3.8210 0.8821
3.8130 -6.6921 0.9457 0.9694
21.0060 -28.3017 4.3276 0.8676
26.8129 -28.2613 4.7833 0.8547
33.6208 -27.8100 5.3573 0.8388
43.8512 -28.1372 6.3973 0.8106
38.8438 -18.7579 5.2964 0.8404
21.9188 -7.4900 2.8441 0.9109
23.0593 -4.8829 2.8941 0.9094
41.6035 -3.6735 5.1281 0.8451
93.5866 14.4448 11.6270 0.6828
43.8326 12.3079 5.5901 0.8324
25.5693 10.6405 3.4005 0.8944
18.2898 10.3497 2.5803 0.9188
14.4477 10.6574 2.2044 0.9302
11.3167 10.6735 1.9100 0.9392
9.0708 10.9006 1.7412 0.9445
4.1830 6.4771 0.9467 0.9694
6.3166 12.9825 1.7727 0.9435
6.2516 18.1199 2.3535 0.9257
5.0193 23.3633 2.9341 0.9082
1.3527 14.8207 1.8273 0.9418
-1.7320 58.5260 7.1892 0.7898
-27.3295 66.2226 8.7963 0.7492
-31.1039 55.3462 7.7953 0.7743
-27.0400 36.8839 5.6154 0.8317
-25.9831 27.7121 4.6643 0.8581
-28.0658 23.4950 4.4941 0.8629
-28.0671 18.2438 4.1103 0.8738
-26.0544 12.7718 3.5628 0.8896
-34.8485 12.1382 4.5310 0.8618
-98.0790 -2.6135 12.0469 0.6734
-44.5252 -24.8504 6.2609 0.8142
-34.1400 -24.8743 5.1865 0.8435
-26.9750 -25.1430 4.5278 0.8619
-26.9942 -32.0532 5.1454 0.8446
-27.1891 -41.5605 6.0980 0.8186
-27.0443 -54.7617 7.4991 0.7818
4.0559 -27.9128 3.4632 0.8926
10.6972 -39.4326 5.0167 0.8482
11.5100 -28.3629 3.7584 0.8839
15.4885 -27.9446 3.9229 0.8792
20.5399 -28.3665 4.3002 0.8684
5.7669 -6.2237 1.0418 0.9664
32.8767 -27.8538 5.2907 0.8406
43.0801 -28.3649 6.3332 0.8123
68.3337 -33.9979 9.3714 0.7352
21.7594 -7.7232 2.8350 0.9111
22.6145 -5.0680 2.8456 0.9108
41.0520 -4.1130 5.0658 0.8468
93.2886 13.2747 11.5698 0.6840
45.8840 12.3022 5.8328 0.8258
26.4825 10.6561 3.5050 0.8913
18.6904 10.2875 2.6196 0.9176
14.7537 10.6168 2.2318 0.9294
11.5843 10.6707 1.9338 0.9385
9.2899 10.9000 1.7585 0.9439
4.2988 6.4873 0.9556 0.9691
6.4408 12.8505 1.7649 0.9437
6.2498 17.4449 2.2753 0.9280
7.2967 32.1159 4.0438 0.8757
2.3498 22.7759 2.8114 0.9119
-0.9911 55.6817 6.8379 0.7990
-27.1904 68.1533 9.0096 0.7440
-30.2498 55.3439 7.7442 0.7756
-26.6035 37.2000 5.6154 0.8317
-25.9813 28.3733 4.7237 0.8564
-28.0642 24.0621 4.5390 0.8616
-28.0658 18.7172 4.1421 0.8729
-26.0534 13.1544 3.5836 0.8890
-34.8472 12.6003 4.5498 0.8613
-50.1457 11.5487 6.3183 0.8127
-98.9945 -1.4702 12.1563 0.6710
-46.1010 -25.0216 6.4405 0.8095
-34.9964 -24.8719 5.2717 0.8411
-27.3462 -24.8932 4.5405 0.8615
-26.8012 -31.0731 5.0384 0.8476
-27.0170 -40.2535 5.9525 0.8225
-26.8602 -52.8112 7.2749 0.7876
3.8269 -28.7118 3.5565 0.8898
10.3526 -40.0241 5.0761 0.8465
10.9534 -27.9319 3.6839 0.8861
15.2123 -28.2258 3.9370 0.8788
20.1378 -28.5129 4.2861 0.8688
5.6609 -6.2556 1.0359 0.9666
32.4060 -28.1178 5.2680 0.8412
41.9895 -28.3619 6.2216 0.8153
55.1852 -28.2727 7.6134 0.7789
21.7198 -7.9987 2.8419 0.9109
23.2623 -5.5019 2.9351 0.9082
41.5679 -4.6604 5.1359 0.8449
97.4236 12.6935 12.0632 0.6730
47.2247 12.0669 5.9848 0.8217
16.5194 6.4218 2.1763 0.9311
19.1028 10.2229 2.6603 0.9164
15.0669 10.5749 2.2602 0.9285
11.8596 10.6686 1.9587 0.9377
9.4940 10.8769 1.7727 0.9435
7.4468 10.9551 1.6265 0.9480
6.4398 12.4791 1.7242 0.9450
6.2480 16.8130 2.2023 0.9303
6.1223 25.5486 3.2258 0.8995
2.5989 22.5800 2.7908 0.9125
-0.3888 64.7156 7.9462 0.7704
-27.1838 70.5412 9.2822 0.7374
-29.7595 56.0058 7.7872 0.7745
-26.1630 37.5111 5.6154 0.8317
-27.9958 31.3062 5.1567 0.8443
-27.9179 24.5135 4.5618 0.8609
-28.0644 19.1982 4.1750 0.8719
-26.0523 13.5416 3.6051 0.8884
-34.8459 13.0663 4.5694 0.8607
-47.5441 11.5415 6.0072 0.8211
-28.3375 -10.8243 3.7246 0.8849
-47.0878 -24.8433 6.5370 0.8069
-36.1338 -25.0443 5.3981 0.8376
-28.0004 -24.8914 4.6001 0.8599
-26.8310 -30.3762 4.9764 0.8493
-27.0142 -39.2417 5.8496 0.8253
-26.9461 -51.4693 7.1333 0.7913
4.0597 -33.4656 4.1392 0.8730
10.6856 -43.4159 5.4899 0.8351
10.5747 -27.9309 3.6670 0.8866
14.8579 -28.3638 3.9315 0.8789
19.8030 -28.7520 4.2866 0.8688
5.5676 -6.3003 1.0324 0.9667
31.8858 -28.3323 5.2373 0.8421
40.9362 -28.3590 6.1146 0.8182
53.6575 -28.2934 7.4481 0.7831
21.8979 -8.3587 2.8779 0.9099
26.3858 -6.5701 3.3387 0.8962
42.3078 -5.2489 5.2346 0.8421
50.5732 12.2891 6.3903 0.8108
28.1983 10.5811 3.6980 0.8857
19.5410 10.1629 2.7044 0.9151
15.4404 10.5676 2.2974 0.9274
12.1755 10.6958 1.9899 0.9368
9.6215 10.7643 1.7727 0.9435
7.6020 10.9047 1.6322 0.9478
6.4891 12.2189 1.6987 0.9458
6.2464 16.2205 2.1342 0.9323
6.0454 23.9767 3.0361 0.9052
2.8275 22.2530 2.7543 0.9136
0.3262 56.4635 6.9330 0.7965
-31.4223 84.4957 11.0689 0.6954
-29.5727 57.2732 7.9144 0.7712
-29.7934 43.8079 6.5050 0.8077
-28.0518 32.1231 5.2364 0.8421
-28.0609 25.2312 4.6334 0.8589
-28.0631 19.6867 4.2090 0.8710
-26.0512 13.9337 3.6275 0.8878
-34.7282 13.4913 4.5745 0.8606
-44.9551 11.4757 5.6968 0.8295
-48.6771 -24.9526 6.7163 0.8022
-36.7966 -24.8669 5.4530 0.8361
-28.6718 -24.8895 4.6619 0.8581
-26.8598 -29.6957 4.9164 0.8510
-27.1878 -38.5137 5.7885 0.8270
-27.0396 -50.1990 7.0010 0.7947
3.8131 -34.8661 4.3065 0.8682
10.5201 -45.0243 5.6772 0.8300
10.1996 -27.9299 3.6509 0.8871
14.5442 -28.5799 3.9374 0.8788
23.4102 -34.8623 5.1561 0.8443
5.5074 -6.3823 1.0351 0.9666
31.0703 -28.2699 5.1578 0.8443
39.3186 -27.9301 5.9218 0.8234
50.8135 -27.5643 7.0980 0.7922
22.6285 -8.9446 2.9876 0.9066
24.4818 -6.4035 3.1071 0.9030
43.2600 -5.8857 5.3606 0.8387
52.0075 11.9901 6.5532 0.8065
28.8735 10.4478 3.7702 0.8836
20.1135 10.1613 2.7669 0.9132
15.8362 10.5665 2.3375 0.9261
12.4680 10.6950 2.0169 0.9359
9.7957 10.7024 1.7814 0.9432
7.7954 10.9059 1.6460 0.9474
6.4881 11.8769 1.6617 0.9469
6.2448 15.6632 2.0704 0.9343
6.1442 23.2111 2.9481 0.9078
3.1482 22.6390 2.8065 0.9120
0.9730 55.3786 6.8007 0.7999
-30.5692 85.2658 11.1218 0.6942
-29.2402 58.3055 8.0088 0.7688
-29.8251 44.9858 6.6272 0.8045
-28.0497 32.8953 5.3080 0.8401
-28.0593 25.8344 4.6831 0.8575
-28.0617 20.1836 4.2442 0.8700
-26.0501 14.3304 3.6506 0.8871
-33.7074 13.5542 4.4608 0.8638
-42.9084 11.4937 5.4542 0.8361
-49.8890 -24.8355 6.8427 0.7988
-37.7520 -24.8692 5.5507 0.8334
-29.3618 -24.8876 4.7260 0.8563
-26.9191 -29.0652 4.8642 0.8524
-27.0088 -37.3184 5.6563 0.8306
-27.1774 -49.0604 6.8864 0.7977
-0.9690 -41.2957 5.0719 0.8466
3.8475 -39.4817 4.8707 0.8523
10.2542 -46.3459 5.8282 0.8259
9.8276 -27.9288 3.6353 0.8875
17.2184 -34.8447 4.7722 0.8550
18.8824 -28.8484 4.2334 0.8703
5.4820 -6.5063 1.0446 0.9663
30.4613 -28.3795 5.1119 0.8455
38.3493 -27.9274 5.8250 0.8260
49.9421 -27.8586 7.0216 0.7942
22.3903 -9.1571 2.9702 0.9071
41.3190 -6.1185 5.1287 0.8451
56.1751 12.2555 7.0597 0.7932
30.5331 10.6429 3.9702 0.8778
21.3361 10.4650 2.9179 0.9087
