ply
format ascii 1.0
element vertex 1574
property float32 x
property float32 y
property float32 z
property float32 I
end_header
16.9650 4.4778 2.1543 0.9317
20.5084 8.1612 2.7102 0.9149
15.8361 8.6392 2.2150 0.9299
12.1798 8.6969 1.8376 0.9415
9.7865 8.9496 1.6283 0.9480
7.6875 8.9555 1.4492 0.9535
6.9103 10.3502 1.5281 0.9511
6.6643 13.1847 1.8139 0.9422
6.6789 18.4498 2.4092 0.9240
6.9111 29.9681 3.7762 0.8834
5.7458 54.0146 6.6696 0.8034
-0.8017 54.5345 6.6967 0.8027
-26.5510 67.1117 8.8617 0.7476
-29.3386 54.0369 7.5497 0.7805
-29.4087 41.3615 6.2314 0.8150
-27.6304 30.3360 5.0382 0.8476
-27.6385 23.8216 4.4801 0.8633
-27.3832 18.3619 4.0482 0.8756
-25.6274 13.0181 3.5294 0.8906
-26.0468 9.4882 3.4037 0.8943
-41.5955 9.6805 5.2438 0.8419
-49.6630 -26.8351 6.9311 0.7965
-38.0260 -26.9224 5.7207 0.8288
-29.5641 -26.8191 4.9011 0.8514
-26.4152 -30.5236 4.9564 0.8499
-21.3249 -31.6646 4.6874 0.8574
-26.5211 -51.9508 7.1619 0.7905
4.6210 -34.9741 4.3316 0.8675
10.6721 -41.4420 5.2544 0.8416
11.8564 -30.3239 3.9978 0.8770
16.1031 -29.9452 4.1747 0.8720
5.9227 -8.4011 1.2621 0.9594
19.2763 -21.3351 3.5309 0.8906
34.3081 -29.8109 5.5806 0.8326
44.2726 -29.9452 6.5627 0.8062
59.0747 -30.3074 8.1523 0.7652
22.7169 -8.3786 2.9730 0.9070
35.4600 -8.4027 4.4745 0.8634
43.2822 -4.8677 5.3479 0.8390
94.0068 12.2290 11.6398 0.6825
33.8192 8.6367 4.2857 0.8688
20.9937 8.1599 2.7656 0.9132
16.0768 8.6039 2.2389 0.9291
12.3880 8.6963 1.8584 0.9408
9.9450 8.9492 1.6427 0.9475
7.8129 8.9551 1.4592 0.9532
6.9098 10.1718 1.5098 0.9517
6.6636 12.9246 1.7854 0.9431
6.6777 17.9940 2.3566 0.9256
7.1528 29.9182 3.7770 0.8834
1.4678 12.8193 1.5843 0.9493
-0.3601 53.9392 6.6230 0.8046
-26.7262 69.1720 9.1052 0.7417
-29.4386 55.2739 7.6893 0.7770
-29.3720 42.0199 6.2949 0.8133
-27.6290 30.8278 5.0829 0.8463
-27.6374 24.2099 4.5113 0.8624
-26.9118 18.3606 4.0001 0.8770
-25.6266 13.2774 3.5438 0.8902
-25.6369 9.5726 3.3601 0.8956
-41.5945 10.0327 5.2536 0.8416
-50.6167 -26.8280 7.0340 0.7938
-38.5990 -26.8658 5.7743 0.8274
-29.9665 -26.7489 4.9321 0.8505
-26.4352 -30.0559 4.9147 0.8510
-26.5866 -38.8019 5.7754 0.8273
-26.5792 -51.0487 7.0667 0.7930
4.3967 -35.4655 4.3880 0.8659
10.5870 -42.5216 5.3804 0.8381
11.4273 -29.9322 3.9339 0.8789
15.8164 -29.9863 4.1627 0.8723
5.8995 -8.5123 1.2717 0.9591
26.9533 -30.3175 4.9809 0.8492
33.7553 -29.8094 5.5294 0.8340
44.1287 -30.3668 6.5773 0.8058
58.0883 -30.3925 8.0496 0.7678
22.4923 -8.5013 2.9524 0.9076
26.1486 -6.4183 3.3059 0.8972
43.1054 -5.1984 5.3310 0.8395
93.7099 11.4263 11.5913 0.6836
35.6281 8.7948 4.5059 0.8625
22.3342 8.4753 2.9331 0.9082
16.3225 8.5676 2.2635 0.9284
12.6009 8.6957 1.8798 0.9402
10.1065 8.9487 1.6575 0.9471
7.9399 8.9548 1.4695 0.9529
6.9093 9.9975 1.4922 0.9522
6.7186 12.7785 1.7727 0.9435
6.6765 17.5576 2.3064 0.9271
10.8873 43.9751 5.5625 0.8331
1.5638 12.7516 1.5774 0.9495
0.0726 53.8743 6.6149 0.8048
-31.6919 84.0230 11.0262 0.6964
-28.8709 55.2723 7.6566 0.7778
-29.4048 42.7936 6.3753 0.8112
-27.6276 31.3284 5.1287 0.8451
-27.6363 24.6036 4.5432 0.8615
-26.4518 18.3593 3.9535 0.8783
-25.6259 13.5391 3.5586 0.8898
-25.6363 9.8074 3.3702 0.8953
-41.5935 10.3863 5.2639 0.8413
-51.4486 -26.7423 7.1195 0.7916
-39.2645 -26.8640 5.8415 0.8255
-30.4295 -26.7268 4.9728 0.8494
-26.4943 -29.6401 4.8813 0.8520
-26.7611 -38.3922 5.7462 0.8281
-26.6130 -50.1281 6.9686 0.7955
4.2347 -36.5595 4.5190 0.8622
11.1054 -46.1809 5.8319 0.8258
11.1527 -29.9315 3.9219 0.8792
15.6648 -30.2853 4.1866 0.8716
20.6962 -30.3803 4.5136 0.8623
26.5191 -30.3155 4.9455 0.8502
33.2130 -29.8079 5.4796 0.8354
43.3763 -30.3647 6.5012 0.8078
15.4910 -8.2641 2.1558 0.9317
22.7668 -8.8145 2.9976 0.9063
23.7334 -6.0277 3.0066 0.9060
43.0785 -5.5461 5.3330 0.8394
94.1897 10.7190 11.6397 0.6825
36.2070 8.6301 4.5702 0.8607
22.8444 8.4598 2.9911 0.9065
16.6412 8.5653 2.2981 0.9273
12.8139 8.6917 1.9011 0.9395
10.2708 8.9483 1.6726 0.9466
8.0239 8.9045 1.4717 0.9528
6.8586 9.7559 1.4643 0.9531
6.8209 12.7242 1.7727 0.9435
6.6753 17.1393 2.2584 0.9286
7.5218 29.3696 3.7225 0.8850
1.6675 12.7501 1.5788 0.9495
0.4915 52.4546 6.4409 0.8094
-30.5932 83.1241 10.8757 0.6998
-28.8195 56.2695 7.7625 0.7751
-29.4027 43.5349 6.4503 0.8092
-27.6262 31.8381 5.1757 0.8438
-27.6352 25.0030 4.5758 0.8605
-26.0021 18.3581 3.9082 0.8796
-25.6252 13.8028 3.5738 0.8893
-25.6356 10.0437 3.3806 0.8950
-41.5926 10.7413 5.2745 0.8410
-84.2240 0.9583 10.3421 0.7122
-52.3333 -26.6711 7.2121 0.7892
-40.2058 -27.0370 5.9490 0.8226
-30.9003 -26.7042 5.0146 0.8482
-26.4930 -29.1643 4.8378 0.8532
-26.5829 -37.4918 5.6431 0.8309
-26.6104 -49.1665 6.8644 0.7983
4.4680 -41.4824 5.1228 0.8452
10.9321 -47.1202 5.9393 0.8229
10.8797 -29.9307 3.9103 0.8796
4.3971 -8.6708 1.1937 0.9616
20.4125 -30.4866 4.5049 0.8626
26.1210 -30.3484 4.9165 0.8510
32.7589 -29.8783 5.4440 0.8364
42.6410 -30.3626 6.4273 0.8098
55.9252 -30.4137 7.8165 0.7737
22.5575 -8.9422 2.9794 0.9068
23.4300 -6.1512 2.9743 0.9070
41.1929 -5.6397 5.1050 0.8457
44.8306 10.3061 5.6481 0.8308
23.3610 8.4386 3.0498 0.9047
16.9728 8.5644 2.3343 0.9262
12.9946 8.6629 1.9176 0.9390
10.4382 8.9478 1.6881 0.9461
8.1997 8.9540 1.4908 0.9522
6.9060 9.6577 1.4578 0.9533
6.8664 12.5659 1.7582 0.9439
6.6742 16.7381 2.2125 0.9300
11.2245 42.4080 5.3863 0.8380
1.7873 12.8626 1.5945 0.9490
0.9150 52.5979 6.4592 0.8090
-29.5981 82.4554 10.7568 0.7025
-28.8164 57.3939 7.8854 0.7720
-29.4006 44.2939 6.5276 0.8071
-27.6248 32.3573 5.2239 0.8424
-27.4894 25.2751 4.5851 0.8603
-25.5776 18.3676 3.8664 0.8808
-25.6244 14.0687 3.5893 0.8889
-25.6349 10.2814 3.3913 0.8947
-35.5264 9.4794 4.5147 0.8623
-49.4037 0.9586 6.0672 0.8194
-24.4149 -8.7088 3.1828 0.9008
-53.3916 -26.6729 7.3282 0.7862
-40.7609 -26.9379 5.9990 0.8213
-31.3789 -26.6810 5.0573 0.8471
-26.5587 -28.7694 4.8075 0.8540
-26.5812 -36.8590 5.5798 0.8327
-26.6630 -48.3333 6.7777 0.8005
4.1855 -42.0245 5.1855 0.8435
10.6766 -47.7563 6.0085 0.8210
10.6084 -29.9299 3.8989 0.8799
4.2941 -8.6388 1.1845 0.9619
20.1409 -30.6094 4.4990 0.8627
25.7453 -30.4018 4.8915 0.8517
32.7277 -30.3345 5.4791 0.8354
41.9222 -30.3606 6.3555 0.8117
54.7302 -30.3353 7.6832 0.7771
25.2823 -10.2578 3.3501 0.8959
23.1881 -6.2869 2.9499 0.9077
43.7174 -6.3431 5.4240 0.8369
46.5164 10.3014 5.8499 0.8253
23.7650 8.3696 3.0936 0.9034
17.3149 8.5635 2.3718 0.9251
13.2206 8.6611 1.9406 0.9383
10.5497 8.8975 1.6945 0.9459
8.2876 8.9055 1.4937 0.9522
6.9079 9.4984 1.4421 0.9538
6.8658 12.3286 1.7327 0.9447
6.6731 16.3528 2.1686 0.9313
6.4774 23.7023 3.0170 0.9057
3.7158 25.2527 3.1340 0.9022
1.3603 53.5088 6.5722 0.8060
-29.6815 84.8218 11.0340 0.6962
-28.8132 58.5545 8.0129 0.7687
-29.3985 45.0714 6.6072 0.8050
-27.6233 32.8863 5.2734 0.8411
-27.2379 25.4502 4.5771 0.8605
-25.5768 18.6799 3.8888 0.8802
-25.6237 14.3371 3.6052 0.8884
-25.5995 10.5064 3.3976 0.8945
-34.4295 9.4832 4.3848 0.8660
-29.5542 4.4092 3.6690 0.8865
-49.5528 1.3593 6.0866 0.8189
-54.7191 -26.7897 7.4807 0.7823
-41.3579 -26.8582 6.0550 0.8198
-32.1304 -26.8788 5.1435 0.8447
-26.5574 -28.3089 4.7660 0.8552
-26.5795 -36.2401 5.5182 0.8343
-26.6053 -47.3267 6.6663 0.8035
-30.2346 -73.2507 9.7301 0.7266
4.3098 -47.1017 5.8075 0.8265
11.0905 -51.5465 6.4739 0.8086
10.3386 -29.9292 3.8879 0.8802
4.2340 -8.6921 1.1871 0.9618
19.8605 -30.7172 4.4913 0.8629
25.3901 -30.4749 4.8703 0.8523
32.2037 -30.3328 5.4320 0.8367
41.2192 -30.3587 6.2856 0.8136
53.6330 -30.2922 7.5631 0.7802
25.1500 -10.4399 3.3435 0.8961
23.3762 -6.5397 2.9804 0.9068
43.0905 -6.6056 5.3526 0.8389
47.2544 10.0678 5.9323 0.8231
24.3828 8.3679 3.1652 0.9013
17.6683 8.5625 2.4107 0.9239
13.4520 8.6593 1.9643 0.9376
10.7826 8.9469 1.7203 0.9451
8.4216 8.9052 1.5049 0.9518
6.7304 9.0999 1.3897 0.9554
6.9154 12.1866 1.7205 0.9451
6.6721 15.9825 2.1265 0.9326
6.5151 23.1093 2.9481 0.9078
3.9234 25.2557 3.1382 0.9021
1.7725 52.9846 6.5093 0.8076
-28.6663 59.4553 8.1045 0.7664
-20.6824 32.2716 4.7064 0.8569
-27.6218 33.4252 5.3241 0.8397
-26.8023 25.4490 4.5381 0.8616
-25.5759 18.9958 3.9117 0.8795
-25.6229 14.6078 3.6215 0.8879
-25.6336 10.7615 3.4135 0.8940
-34.4286 9.7809 4.3946 0.8657
-83.6826 2.9672 10.2814 0.7136
-26.0463 -8.8222 3.3766 0.8951
-27.8919 -13.3791 3.7983 0.8828
-42.0903 -26.8561 6.1304 0.8177
-32.8167 -27.0084 5.2185 0.8426
-26.5562 -27.8564 4.7255 0.8563
-26.7097 -35.8117 5.4854 0.8352
-26.6078 -46.4548 6.5733 0.8059
1.9243 -23.0671 2.8421 0.9109
6.3224 -30.5763 3.8337 0.8818
10.0703 -29.9284 3.8772 0.8805
14.6500 -30.6990 4.1766 0.8719
23.4162 -36.8619 5.3621 0.8386
24.9936 -30.4932 4.8411 0.8531
31.6888 -30.3312 5.3860 0.8380
39.9627 -29.9308 6.1305 0.8177
52.8507 -30.4126 7.4869 0.7821
22.1418 -9.4002 2.9535 0.9076
22.6111 -6.5216 2.8895 0.9095
42.8980 -6.9286 5.3355 0.8394
50.2790 10.2910 6.3015 0.8132
25.9627 8.6779 3.3612 0.8955
18.0205 8.5554 2.4493 0.9228
13.7446 8.6925 1.9968 0.9366
10.8987 8.8966 1.7274 0.9449
8.5577 8.9048 1.5164 0.9514
6.7300 8.9483 1.3748 0.9559
6.9147 11.9609 1.6964 0.9458
6.6711 15.6264 2.0862 0.9338
6.6916 23.0266 2.9443 0.9079
7.3506 44.9364 5.5908 0.8323
2.2213 53.5340 6.5788 0.8058
-28.8065 60.9922 8.2821 0.7620
-29.3940 46.6853 6.7738 0.8007
-28.8490 35.4863 5.6154 0.8317
-26.3740 25.4478 4.5000 0.8627
-25.5751 19.3153 3.9352 0.8788
-25.6222 14.8810 3.6381 0.8874
-25.6330 11.0040 3.4251 0.8937
-34.4278 10.0800 4.4047 0.8654
-49.6010 2.1572 6.0960 0.8187
-33.7116 -21.1313 4.8852 0.8519
-33.2611 -26.9291 5.2547 0.8416
-26.5549 -27.4114 4.6860 0.8574
-26.5761 -35.0423 5.4001 0.8376
-26.7819 -45.9012 6.5252 0.8072
4.0534 -53.8002 6.6245 0.8046
6.0296 -30.3870 3.8038 0.8826
9.8034 -29.9277 3.8668 0.8808
17.0608 -36.5018 4.9473 0.8501
22.7155 -36.4007 5.2683 0.8412
24.5740 -30.4768 4.8070 0.8540
31.1809 -30.3285 5.3409 0.8392
39.2995 -29.9289 6.0653 0.8195
50.4329 -29.5622 7.1778 0.7901
22.1136 -9.5982 2.9599 0.9074
22.7273 -6.7532 2.9112 0.9089
7.4188 11.9233 1.2286 0.9452
7.0004 15.0289 1.4505 0.9356
6.8167 20.9031 1.9236 0.9155
8.9575 45.4573 4.0535 0.8302
4.1158 55.6055 4.8782 0.7994
-2.5911 55.3331 4.8463 0.8006
-26.7181 61.6718 5.8802 0.7635
-31.2213 53.3476 5.4079 0.7802
-25.5405 33.5847 3.6914 0.8442
-25.5606 26.3154 3.2096 0.8630
-25.6113 20.6800 2.8800 0.8762
-25.5737 15.9834 2.6385 0.8860
-26.7680 12.5338 2.5859 0.8881
-28.8204 9.4626 2.6539 0.8853
-97.2680 19.3696 8.6769 0.6715
-97.1206 7.3846 8.5215 0.6763
-97.3849 -4.3646 8.5286 0.6761
-45.5242 -26.5203 4.6094 0.8093
-35.5522 -26.9243 3.9017 0.8360
-27.9772 -27.0659 3.4056 0.8553
-26.6250 -32.8390 3.6987 0.8439
-26.5965 -42.3656 4.3764 0.8180
-26.6310 -56.5790 5.4709 0.7780
4.9337 -29.9142 2.6525 0.8854
8.7929 -30.1090 2.7442 0.8817
15.7594 -36.7802 3.5008 0.8516
17.4538 -30.0994 3.0441 0.8696
6.1908 -8.2088 0.8995 0.9596
35.9212 -37.2800 4.5293 0.8123
37.6046 -30.6140 4.2424 0.8231
48.3136 -30.4659 4.9971 0.7951
64.3002 -30.4229 6.2234 0.7515
25.1299 -8.3627 2.3171 0.8991
43.0573 -8.7540 3.8441 0.8383
62.6392 -5.0156 5.4978 0.7770
62.9690 10.2557 5.5816 0.7740
28.5846 8.2855 2.6038 0.8874
20.2566 8.6314 1.9264 0.9154
15.4847 8.9377 1.5642 0.9307
11.6799 8.7719 1.2779 0.9430
4.5334 4.3507 0.5497 0.9751
7.3214 8.9565 1.0121 0.9546
7.5142 11.8634 1.2286 0.9452
6.7984 14.2944 1.3848 0.9384
6.8152 20.3432 1.8770 0.9175
9.2881 45.2194 4.0388 0.8308
4.4809 54.5851 4.7916 0.8026
-26.7379 63.1007 5.9958 0.7594
-30.6484 53.3460 5.3826 0.7811
-25.5389 34.1478 3.7307 0.8426
-25.5595 26.7401 3.2363 0.8620
-25.6103 21.0209 2.8987 0.8754
-25.5729 16.2696 2.6517 0.8854
-26.6666 12.7482 2.5859 0.8881
-28.0525 9.4605 2.5901 0.8879
-97.3165 20.1924 8.6954 0.6709
-97.1184 8.1686 8.5268 0.6762
-97.3318 -3.5800 8.5212 0.6763
-46.2489 -26.4477 4.6611 0.8074
-36.0754 -26.8678 3.9354 0.8348
-28.2610 -26.9049 3.4138 0.8550
-26.5683 -32.2370 3.6548 0.8456
-26.5944 -41.6170 4.3209 0.8201
-26.8044 -55.7815 5.4144 0.7800
4.6874 -29.9135 2.6490 0.8855
8.7431 -30.8566 2.8059 0.8792
15.4677 -36.9150 3.5017 0.8515
17.0463 -29.9479 3.0148 0.8708
6.1071 -8.2344 0.8969 0.9597
28.4266 -29.9795 3.6145 0.8471
37.3556 -30.9129 4.2421 0.8231
47.4476 -30.4546 4.9327 0.7974
62.0965 -29.9924 6.0332 0.7581
24.9658 -8.5312 2.3082 0.8995
42.9269 -9.0868 3.8388 0.8385
62.2597 -5.4883 5.4681 0.7781
94.0185 14.5394 8.3233 0.6825
29.1894 8.2075 2.6528 0.8854
20.7076 8.6279 1.9626 0.9139
15.6865 8.8871 1.5773 0.9302
12.1143 8.9470 1.3176 0.9413
9.4775 8.9505 1.1405 0.9490
7.4418 8.9562 1.0188 0.9543
7.6091 11.8028 1.2286 0.9452
6.7399 13.8831 1.3502 0.9399
6.8137 19.8096 1.8328 0.9193
9.8245 45.9571 4.1116 0.8280
2.0056 22.2421 1.9538 0.9142
-1.6689 54.2609 4.7495 0.8041
-26.7738 64.6238 6.1199 0.7551
-30.0808 53.3444 5.3579 0.7820
-31.4409 42.7503 4.6428 0.8081
-25.5933 27.2093 3.2681 0.8607
-25.5745 21.3371 2.9140 0.8748
-25.5721 16.5588 2.6654 0.8849
-26.5635 12.9618 2.5859 0.8881
-27.9307 9.6697 2.5859 0.8881
-97.2736 20.9989 8.7064 0.6706
-97.2969 8.9705 8.5485 0.6755
-97.3508 -2.7987 8.5206 0.6763
-51.2208 -21.1006 4.8466 0.8006
-46.6716 -26.1949 4.6824 0.8066
-28.0111 -20.5145 3.0376 0.8699
-28.7013 -26.8884 3.4408 0.8539
-26.5669 -31.7133 3.6195 0.8469
-26.7244 -41.0902 4.2884 0.8213
-26.6246 -54.2874 5.2900 0.7844
4.4417 -29.9128 2.6457 0.8857
11.2531 -40.9647 3.7167 0.8432
12.3384 -30.1224 2.8479 0.8775
16.7291 -29.9470 3.0011 0.8713
6.0239 -8.2599 0.8944 0.9598
27.9720 -29.9783 3.5872 0.8482
43.8907 -36.9183 5.0177 0.7943
46.4851 -30.3661 4.8578 0.8002
61.3989 -30.2652 5.9889 0.7597
88.7628 -31.1294 8.2295 0.6854
45.0243 -9.9088 4.0334 0.8310
61.8569 -5.9532 5.4368 0.7792
94.0163 13.7676 8.3131 0.6828
29.8493 8.1353 2.7067 0.8832
21.2919 8.6715 2.0114 0.9118
16.0721 8.9360 1.6089 0.9288
12.3191 8.9465 1.3320 0.9407
9.6306 8.9501 1.1502 0.9486
7.5638 8.9558 1.0256 0.9540
7.6197 11.6134 1.2152 0.9458
6.7391 13.6026 1.3281 0.9409
6.8123 19.3006 1.7907 0.9211
7.0549 31.7531 2.8458 0.8776
2.1879 22.2643 1.9573 0.9141
-1.2255 53.9196 4.7186 0.8053
-26.7697 66.1089 6.2400 0.7510
-29.5184 53.3429 5.3338 0.7829
-31.4388 43.4739 4.6938 0.8062
-25.5921 27.6492 3.2962 0.8596
-25.6084 21.7162 2.9376 0.8739
-25.5713 16.8510 2.6793 0.8843
-26.4586 13.1745 2.5859 0.8881
-27.8522 9.8935 2.5859 0.8881
-42.3261 9.4932 3.7951 0.8402
-97.3456 9.7630 8.5594 0.6751
-97.3783 -2.0177 8.5213 0.6763
-48.6082 -26.7712 4.8550 0.8003
-37.3127 -26.8694 4.0228 0.8314
-29.1653 -26.8871 3.4705 0.8528
-26.5654 -31.1996 3.5850 0.8483
-26.5904 -40.1750 4.2150 0.8241
-26.7982 -53.5502 5.2389 0.7863
4.2489 -30.2851 2.6756 0.8844
11.0429 -41.5006 3.7572 0.8416
12.0592 -30.1274 2.8391 0.8778
16.4147 -29.9461 2.9877 0.8719
5.9682 -8.3231 0.8960 0.9597
27.5243 -29.9770 3.5605 0.8492
43.2034 -36.9359 4.9729 0.7959
45.1689 -30.0261 4.7453 0.8043
60.4685 -30.4123 5.9217 0.7620
27.6524 -9.9476 2.5710 0.8887
62.2257 -6.4930 5.4736 0.7779
93.9398 12.9876 8.2968 0.6833
16.9573 4.4758 1.5344 0.9320
21.7874 8.6702 2.0515 0.9101
16.3787 8.9352 1.6323 0.9278
12.5285 8.9459 1.3469 0.9401
9.7865 8.9496 1.1602 0.9481
7.6875 8.9555 1.0326 0.9537
7.6191 11.4119 1.2005 0.9464
6.8182 13.4892 1.3223 0.9411
6.8109 18.8144 1.7506 0.9228
10.2589 44.4849 3.9941 0.8325
5.7458 54.0147 4.7523 0.8040
-0.8136 55.3451 4.8426 0.8007
-26.7307 67.5659 6.3570 0.7470
-29.3386 54.0370 5.3795 0.7812
-31.4368 44.2139 4.7463 0.8043
-25.5908 28.0967 3.3249 0.8585
-25.6074 22.0710 2.9577 0.8731
-25.5705 17.1463 2.6935 0.8837
-26.3521 13.3863 2.5859 0.8881
-27.7719 10.1166 2.5859 0.8881
-40.8744 9.5127 3.6716 0.8449
-97.3434 10.5523 8.5663 0.6749
-97.3253 -1.2355 8.5155 0.6765
-49.4285 -26.7084 4.9154 0.7980
-38.0260 -26.9224 4.0763 0.8294
-29.6376 -26.8858 3.5009 0.8516
-26.6558 -30.8016 3.5638 0.8491
-26.5885 -39.4803 4.1644 0.8260
-26.4055 -51.7243 5.0809 0.7920
4.5389 -34.3530 3.0316 0.8701
10.7739 -41.8376 3.7797 0.8407
11.7815 -30.1325 2.8306 0.8782
16.1032 -29.9452 2.9746 0.8724
5.9203 -8.3977 0.8989 0.9596
19.2737 -21.3323 2.5153 0.8910
35.1794 -30.5680 4.0774 0.8293
44.3890 -30.0240 4.6885 0.8064
59.2726 -30.4089 5.8283 0.7653
84.5487 -31.1837 7.8841 0.6964
35.4551 -8.4015 3.1878 0.8639
43.7277 -4.9178 3.8498 0.8380
94.0121 12.2296 8.2943 0.6834
33.0274 8.4345 2.9823 0.8721
22.3029 8.6687 2.0935 0.9084
16.4296 8.7926 1.6303 0.9279
12.6717 8.8955 1.3545 0.9397
9.9450 8.9492 1.1705 0.9477
7.8129 8.9551 1.0397 0.9534
7.6186 11.2152 1.1862 0.9470
6.9188 13.4196 1.3209 0.9412
6.8096 18.3496 1.7124 0.9244
10.8352 45.3204 4.0768 0.8294
1.4655 12.7995 1.1271 0.9496
-0.3575 53.5398 4.6842 0.8066
-26.7262 69.1720 6.4878 0.7425
-25.3254 47.5511 4.7134 0.8055
-31.2903 44.7642 4.7783 0.8031
-25.5896 28.5522 3.3544 0.8573
-25.6064 22.4308 2.9783 0.8722
-25.5802 17.4520 2.7092 0.8831
-26.2439 13.5972 2.5859 0.8881
-27.6899 10.3391 2.5859 0.8881
-39.4914 9.5254 3.5541 0.8495
-97.2903 11.3369 8.5694 0.6748
-97.3395 -0.4546 8.5162 0.6765
-50.3215 -26.6715 4.9827 0.7956
-38.5990 -26.8658 4.1144 0.8279
-30.1797 -26.9392 3.5393 0.8501
-26.6544 -30.3052 3.5310 0.8504
-26.5866 -38.8019 4.1152 0.8279
-26.4397 -50.7808 5.0089 0.7946
4.3871 -35.3887 3.1198 0.8666
11.4850 -46.1281 4.1589 0.8262
11.4273 -29.9322 2.8031 0.8793
15.8164 -29.9863 2.9660 0.8727
5.9071 -8.5233 0.9073 0.9592
26.9956 -30.3650 3.5547 0.8495
33.9655 -29.9949 3.9644 0.8336
44.1260 -30.3649 4.6863 0.8065
57.0979 -29.8743 5.6379 0.7720
84.2958 -31.8609 7.8841 0.6964
43.4378 -5.2384 3.8278 0.8389
93.7099 11.4263 8.2593 0.6845
34.0489 8.4050 3.0683 0.8686
22.8401 8.6672 2.1373 0.9066
16.6851 8.7579 1.6486 0.9271
12.9617 8.9447 1.3778 0.9387
10.0859 8.9305 1.1786 0.9473
7.9399 8.9548 1.0471 0.9531
7.6590 11.0824 1.1786 0.9473
6.9181 13.1579 1.3006 0.9421
6.8084 17.9046 1.6759 0.9260
10.8173 43.6925 3.9380 0.8347
1.5654 12.7647 1.1251 0.9497
0.0702 52.1587 4.5633 0.8110
-26.7565 70.9381 6.6331 0.7375
-25.2149 48.2732 4.7648 0.8036
-31.4325 45.7446 4.8559 0.8002
-25.5883 29.0158 3.3847 0.8561
-25.6054 22.7956 2.9993 0.8714
-25.5793 17.7537 2.7241 0.8825
-26.1339 13.8075 2.5859 0.8881
-27.6060 10.5609 2.5859 0.8881
-38.1309 9.5216 3.4385 0.8540
-97.3390 12.1349 8.5820 0.6744
-97.3718 0.3265 8.5190 0.6764
-51.2390 -26.6334 5.0523 0.7930
-39.2645 -26.8640 4.1623 0.8261
-30.6698 -26.9379 3.5713 0.8488
-26.5613 -29.7151 3.4869 0.8521
-26.6399 -38.2184 4.0758 0.8294
-26.4728 -49.8639 4.9392 0.7972
4.2347 -36.5595 3.2199 0.8626
11.1965 -46.5599 4.1896 0.8251
11.1527 -29.9315 2.7945 0.8796
15.5919 -30.1443 2.9692 0.8726
20.8017 -30.5352 3.2325 0.8621
26.6720 -30.4903 3.5442 0.8499
33.4197 -29.9934 3.9287 0.8350
43.4703 -30.4305 4.6424 0.8081
15.4888 -8.2629 1.5359 0.9319
76.5351 -29.6315 7.1803 0.7193
43.1046 -5.5495 3.8023 0.8399
94.1897 10.7190 8.2937 0.6834
35.5849 8.4818 3.2005 0.8634
23.3975 8.6646 2.1829 0.9047
17.3545 8.9325 1.7076 0.9246
13.1859 8.9440 1.3940 0.9380
10.2136 8.8984 1.1851 0.9471
8.0239 8.9045 1.0487 0.9530
7.6677 10.9067 1.1664 0.9479
6.8671 12.8104 1.2716 0.9433
6.8072 17.4780 1.6410 0.9275
7.0044 27.3490 2.4699 0.8928
1.6699 12.7682 1.1266 0.9496
0.4862 51.8876 4.5398 0.8119
-26.7517 72.6862 6.7762 0.7327
-24.7300 48.2850 4.7462 0.8043
-31.4303 46.5371 4.9131 0.7981
-25.5519 29.4476 3.4111 0.8551
-25.6044 23.1656 3.0209 0.8705
-25.5785 18.0590 2.7394 0.8819
-26.0222 14.0167 2.5859 0.8881
-27.5204 10.7821 2.5859 0.8881
-36.8561 9.5181 3.3303 0.8583
-97.0418 12.8894 8.5646 0.6750
-97.3187 1.1073 8.5148 0.6765
-52.9817 -27.0015 5.2025 0.7876
-40.2058 -27.0370 4.2389 0.8232
-31.1057 -26.8817 3.5968 0.8478
-26.5600 -29.2380 3.4559 0.8533
-26.5829 -37.4918 4.0209 0.8315
-26.5432 -49.0425 4.8788 0.7994
4.4679 -41.4824 3.6502 0.8458
10.9528 -47.2095 4.2400 0.8232
10.8797 -29.9307 2.7862 0.8800
4.3968 -8.6702 0.8505 0.9617
20.6209 -30.7980 3.2427 0.8617
26.4157 -30.6907 3.5427 0.8499
32.9434 -30.0466 3.9009 0.8361
42.9500 -30.5827 4.6129 0.8092
55.5941 -30.2336 5.5366 0.7756
23.5491 -9.3353 2.2163 0.9033
42.9532 -5.8807 3.7930 0.8402
44.8306 10.3061 4.0245 0.8314
23.8429 8.6127 2.2179 0.9032
17.6017 8.8818 1.7249 0.9239
13.4154 8.9434 1.4106 0.9373
10.3801 8.8980 1.1961 0.9466
8.1997 8.9540 1.0622 0.9524
6.9060 9.6577 1.0387 0.9534
6.8664 12.5659 1.2528 0.9441
6.8061 17.0689 1.6077 0.9289
7.2381 27.3469 2.4749 0.8926
1.7939 12.9100 1.1403 0.9490
0.9019 51.8448 4.5365 0.8120
-26.7118 74.4145 6.9172 0.7280
-28.8164 57.3938 5.6187 0.7727
-31.2968 47.1506 4.9511 0.7967
-25.5856 29.9688 3.4475 0.8537
-25.6033 23.5410 3.0429 0.8697
-25.5776 18.3676 2.7550 0.8812
-25.9090 14.2249 2.5859 0.8881
-27.4330 11.0026 2.5859 0.8881
-35.5264 9.4794 3.2169 0.8627
-97.2837 13.7167 8.5954 0.6740
-97.3272 1.8884 8.5166 0.6765
-53.6938 -26.8239 5.2512 0.7858
-40.7609 -26.9379 4.2745 0.8219
-31.5572 -26.8326 3.6240 0.8468
-26.5587 -28.7694 3.4255 0.8545
-26.5812 -36.8590 3.9758 0.8332
-26.6012 -48.2212 4.8182 0.8016
4.2186 -42.3567 3.7241 0.8429
10.7565 -48.1135 4.3133 0.8204
10.6084 -29.9299 2.7781 0.8803
4.2941 -8.6387 0.8440 0.9620
24.7085 -37.5512 3.9327 0.8349
31.6323 -37.3536 4.2824 0.8216
32.7390 -30.3450 3.9054 0.8359
42.4962 -30.7764 4.5905 0.8100
54.8397 -30.3960 5.4856 0.7774
23.3515 -9.4745 2.2048 0.9038
43.6257 -11.8281 3.9546 0.8340
42.5338 -6.1714 3.7602 0.8415
46.5465 10.3081 4.1710 0.8258
24.3024 8.5589 2.2542 0.9017
17.9566 8.8808 1.7526 0.9227
13.6505 8.9428 1.4277 0.9366
10.5497 8.8975 1.2074 0.9461
8.3324 8.9537 1.0701 0.9521
6.9079 9.4984 1.0275 0.9539
6.8658 12.3286 1.2346 0.9449
6.8050 16.6759 1.5758 0.9302
12.0061 43.9330 3.9846 0.8329
7.9470 54.0085 4.7760 0.8032
1.3511 53.1434 4.6510 0.8078
-28.8132 58.5544 5.7095 0.7695
-31.2814 47.9581 5.0094 0.7946
-25.5843 30.4588 3.4801 0.8524
-25.6023 23.9219 3.0655 0.8688
-25.5768 18.6799 2.7709 0.8806
-25.7940 14.4324 2.5859 0.8881
-27.3438 11.2223 2.5859 0.8881
-34.4041 9.4763 3.1221 0.8665
-29.5516 4.4088 2.6141 0.8869
-97.0703 2.6628 8.4957 0.6771
-54.7828 -26.8209 5.3365 0.7828
-41.3579 -26.8582 4.3144 0.8204
-32.1304 -26.8788 3.6650 0.8452
-26.7336 -28.4966 3.4185 0.8548
-26.5795 -36.2401 3.9319 0.8349
-26.6053 -47.3267 4.7500 0.8041
4.3180 -47.1910 4.1459 0.8267
11.1745 -51.9369 4.6479 0.8079
10.3385 -29.9292 2.7703 0.8806
4.2339 -8.6920 0.8459 0.9619
24.2782 -37.5500 3.9121 0.8357
31.1890 -37.4352 4.2629 0.8223
32.3513 -30.4718 3.8882 0.8366
41.7837 -30.7745 4.5401 0.8119
53.8096 -30.3920 5.4067 0.7802
23.9035 -9.9225 2.2643 0.9013
43.7266 -12.2329 3.9725 0.8333
42.7238 -6.5494 3.7815 0.8407
47.3934 10.0974 4.2394 0.8232
24.8912 8.5424 2.3024 0.8997
18.2332 8.8362 1.7727 0.9219
13.8912 8.9421 1.4454 0.9358
10.7225 8.8970 1.2190 0.9456
4.5347 4.7951 0.5774 0.9738
6.7530 9.1305 0.9936 0.9554
6.9306 12.2135 1.2286 0.9452
6.8039 16.2983 1.5452 0.9315
12.3487 43.8016 3.9815 0.8330
8.3898 54.0075 4.7817 0.8030
1.7761 53.0907 4.6474 0.8079
-28.6317 59.3837 5.7678 0.7674
-20.6806 32.2687 3.3532 0.8574
-25.5829 30.9578 3.5136 0.8511
-25.6012 24.3085 3.0886 0.8678
-25.5759 18.9957 2.7873 0.8799
-25.6774 14.6389 2.5859 0.8881
-27.2529 11.4413 2.5859 0.8881
-33.4709 9.5088 3.0442 0.8696
-97.3301 15.3200 8.6201 0.6733
-97.3631 3.4523 8.5235 0.6763
-26.0343 -8.8182 2.4048 0.8955
-55.9079 -26.8177 5.4249 0.7796
-41.4312 -26.4356 4.2998 0.8209
-32.8167 -27.0084 3.7184 0.8431
-26.7323 -28.0412 3.3895 0.8559
-26.7097 -35.8116 3.9086 0.8358
-26.6078 -46.4548 4.6837 0.8066
-30.8613 -73.1002 6.9420 0.7272
1.9240 -23.0638 2.0248 0.9113
6.2430 -30.1924 2.6974 0.8836
10.0702 -29.9284 2.7627 0.8809
14.7466 -30.9014 2.9956 0.8715
23.5215 -37.0278 3.8379 0.8385
25.2077 -30.7545 3.4790 0.8524
32.0558 -30.6826 3.8822 0.8368
40.4490 -30.2950 4.4213 0.8163
52.8108 -30.3896 5.3307 0.7830
23.5683 -10.0058 2.2401 0.9023
42.4816 -6.8614 3.7648 0.8413
50.2790 10.2910 4.4901 0.8138
25.5518 8.5406 2.3571 0.8975
18.3035 8.6897 1.7727 0.9219
14.1381 8.9414 1.4635 0.9350
10.8987 8.8966 1.2309 0.9451
4.5345 4.7184 0.5725 0.9741
6.7526 8.9784 0.9829 0.9559
7.0284 12.1575 1.2286 0.9452
6.8029 15.9352 1.5159 0.9328
6.6917 23.0266 2.0979 0.9082
8.8707 54.2293 4.8075 0.8020
2.2185 53.4676 4.6818 0.8066
-28.1543 59.6116 5.7678 0.7674
-31.4210 49.9047 5.1594 0.7892
-25.5815 31.4669 3.5480 0.8497
-25.6001 24.7011 3.1123 0.8669
-25.5750 19.3152 2.8040 0.8792
-25.5768 14.8547 2.5877 0.8880
-27.1602 11.6596 2.5859 0.8881
-32.4673 9.5060 2.9598 0.8730
-97.2770 16.1125 8.6266 0.6731
-97.3101 4.2321 8.5216 0.6763
-33.7089 -21.1296 3.4804 0.8524
-33.2611 -26.9291 3.7441 0.8421
-26.5549 -27.4114 3.3390 0.8579
-26.5761 -35.0423 3.8478 0.8381
-26.6055 -45.5988 4.6188 0.8090
4.4157 -58.6094 5.1422 0.7898
5.9918 -30.1967 2.6934 0.8837
9.8034 -29.9277 2.7552 0.8812
14.6970 -31.4444 3.0367 0.8699
19.2258 -30.8086 3.1772 0.8643
24.8861 -30.8638 3.4687 0.8528
37.9600 -36.9223 4.6329 0.8085
39.4060 -30.0101 4.3335 0.8196
51.1859 -30.0035 5.1908 0.7880
23.4281 -10.1688 2.2344 0.9025
7.5989 12.2128 0.7538 0.9440
7.0004 15.0289 0.8689 0.9357
6.8167 20.9031 1.1523 0.9157
10.6410 54.0007 2.8845 0.8022
-26.7763 61.8062 3.5300 0.7635
-25.7290 43.9631 2.6696 0.8154
-28.4806 37.4509 2.4658 0.8282
-24.6094 25.3361 1.8511 0.8681
-26.8785 21.7032 1.8105 0.8708
-25.7106 16.0690 1.5890 0.8856
-25.4148 11.9002 1.4707 0.8937
-28.7267 9.4318 1.5846 0.8859
-48.3921 9.6367 2.5859 0.8207
-97.1506 7.3869 5.1061 0.6769
-97.3848 -4.3646 5.1088 0.6767
-45.5270 -26.5219 2.7613 0.8097
-35.4798 -26.8695 2.3325 0.8367
-27.6720 -26.7707 2.0178 0.8571
-26.5698 -32.7710 2.2110 0.8445
-26.5965 -42.3656 2.6215 0.8184
-26.6310 -56.5790 3.2772 0.7784
4.9337 -29.9142 1.5889 0.8856
8.8171 -30.1919 1.6484 0.8816
15.7616 -36.7853 2.0973 0.8519
17.5294 -30.2299 1.8314 0.8694
6.1666 -8.1767 0.5367 0.9598
29.1563 -30.2592 2.2022 0.8451
37.6656 -30.6636 2.5454 0.8232
48.9635 -30.8757 3.0336 0.7931
67.1929 -31.7916 3.8957 0.7425
25.0777 -8.3454 1.3851 0.8995
65.9745 -5.2827 3.4686 0.7671
62.9690 10.2557 3.3435 0.7745
30.6024 8.8704 1.6698 0.8802
20.8232 8.8728 1.1862 0.9133
15.4847 8.9377 0.9370 0.9309
11.7149 8.7982 0.7678 0.9430
4.5334 4.3507 0.3293 0.9751
7.3214 8.9565 0.6063 0.9547
7.6208 12.0318 0.7464 0.9445
6.7984 14.2944 0.8295 0.9386
6.8549 20.4617 1.1309 0.9172
11.0811 53.9490 2.8864 0.8020
1.8301 22.2946 1.1723 0.9143
-26.7379 63.1008 3.5916 0.7599
-25.7268 44.7795 2.7065 0.8131
-28.4789 38.0789 2.4920 0.8266
-25.5595 26.7401 1.9386 0.8623
-26.7035 21.9182 1.8105 0.8708
-25.7283 16.3685 1.5981 0.8850
-25.4320 12.1580 1.4773 0.8932
-33.8332 11.4100 1.8712 0.8667
-41.4078 8.5918 2.2163 0.8442
-97.1484 8.1711 5.1093 0.6767
-97.3318 -3.5800 5.1044 0.6770
-82.9497 -23.6836 4.5209 0.7078
-46.0485 -26.3331 2.7800 0.8086
-36.0754 -26.8678 2.3574 0.8351
-28.0859 -26.7382 2.0323 0.8561
-26.5683 -32.2370 2.1893 0.8459
-26.5944 -41.6169 2.5883 0.8205
-26.8044 -55.7815 3.2434 0.7804
4.6874 -29.9135 1.5868 0.8858
8.8133 -31.1041 1.6943 0.8785
15.4101 -36.7774 2.0898 0.8524
17.0463 -29.9479 1.8059 0.8711
6.0853 -8.2051 0.5354 0.9599
28.4266 -29.9795 2.1652 0.8475
37.6625 -31.1669 2.5620 0.8222
48.9521 -31.4202 3.0485 0.7922
62.2649 -30.0737 3.6238 0.7581
24.9008 -8.5090 1.3791 0.9000
65.1587 -5.7438 3.4281 0.7695
93.9441 14.5279 4.9819 0.6833
31.4298 8.8375 1.7110 0.8774
21.2923 8.8715 1.2089 0.9117
15.6865 8.8871 0.9449 0.9303
12.1143 8.9470 0.7893 0.9415
9.4775 8.9505 0.6832 0.9491
7.4418 8.9562 0.6103 0.9544
7.6202 11.8200 0.7370 0.9452
6.7976 14.0019 0.8157 0.9396
7.0153 20.3958 1.1304 0.9172
11.5328 53.9478 2.8912 0.8017
2.0011 22.1921 1.1678 0.9146
-1.7837 57.9949 3.0408 0.7926
-26.7738 64.6239 3.6659 0.7556
-25.7244 45.6190 2.7447 0.8108
-28.4771 38.7205 2.5190 0.8249
-26.6765 28.3608 2.0405 0.8556
-26.5269 22.1317 1.8105 0.8708
-25.7520 16.6753 1.6078 0.8844
-25.4495 12.4182 1.4841 0.8928
-32.9506 11.4076 1.8274 0.8696
-39.7788 8.5872 2.1327 0.8496
-97.2969 8.9705 5.1207 0.6761
-97.3508 -2.7987 5.1040 0.6770
-51.2166 -21.0989 2.9029 0.8010
-48.1328 -27.0150 2.8927 0.8016
-36.6907 -26.8711 2.3834 0.8335
-28.5396 -26.7369 2.0495 0.8550
-26.5669 -31.7133 2.1681 0.8473
-26.7244 -41.0902 2.5688 0.8217
-26.6246 -54.2874 3.1688 0.7849
4.4417 -29.9128 1.5848 0.8859
11.1256 -40.5007 2.2012 0.8452
12.3720 -30.2042 1.7106 0.8774
16.7291 -29.9470 1.7977 0.8716
6.0208 -8.2556 0.5355 0.9599
27.9720 -29.9783 2.1488 0.8485
43.7090 -36.7655 2.9933 0.7955
46.2670 -30.2236 2.8963 0.8014
61.4880 -30.3091 3.5926 0.7599
88.7628 -31.1294 4.9296 0.6861
83.3725 -8.0239 4.3896 0.7150
93.9420 13.7567 4.9758 0.6837
32.4371 8.8406 1.7620 0.8740
21.4714 8.7446 1.2150 0.9113
16.0721 8.9360 0.9637 0.9290
12.3191 8.9465 0.7979 0.9408
9.6306 8.9501 0.6890 0.9487
7.5638 8.9558 0.6144 0.9541
7.6197 11.6134 0.7279 0.9459
6.7656 13.6562 0.7987 0.9408
6.8123 19.3006 1.0727 0.9213
7.0542 31.7499 1.7045 0.8779
2.1870 22.2558 1.1720 0.9143
-1.2803 56.3297 2.9529 0.7980
-26.7697 66.1088 3.7379 0.7515
-25.7565 46.5448 2.7879 0.8081
-28.4753 39.3759 2.5467 0.8231
-26.7269 28.8753 2.0620 0.8542
-26.3484 22.3438 1.8105 0.8708
-25.7865 16.9929 1.6185 0.8836
-25.4676 12.6810 1.4910 0.8923
-32.1082 11.4052 1.7857 0.8724
-38.2681 8.5831 2.0554 0.8546
-97.3455 9.7630 5.1273 0.6758
-97.3783 -2.0177 5.1045 0.6770
-48.7289 -26.8377 2.9155 0.8003
-37.3127 -26.8694 2.4097 0.8318
-29.0010 -26.7356 2.0672 0.8539
-26.5654 -31.1996 2.1475 0.8486
-26.5904 -40.1750 2.5249 0.8245
-26.6768 -53.3077 3.1240 0.7876
4.2489 -30.2851 1.6027 0.8847
11.0429 -41.5006 2.2506 0.8420
12.0918 -30.2090 1.7053 0.8778
16.4147 -29.9461 1.7897 0.8722
5.9715 -8.3276 0.5370 0.9598
27.5243 -29.9770 2.1328 0.8496
43.2592 -36.9837 2.9827 0.7962
45.1690 -30.0261 2.8425 0.8047
60.8683 -30.6133 3.5707 0.7612
86.5165 -31.1232 4.8186 0.6919
63.6764 -6.6444 3.3553 0.7738
93.9398 12.9876 4.9700 0.6840
16.9491 4.4736 0.9187 0.9322
22.2864 8.8688 1.2571 0.9084
16.3787 8.9352 0.9778 0.9280
12.5285 8.9459 0.8068 0.9402
9.7865 8.9496 0.6950 0.9483
7.6875 8.9555 0.6185 0.9538
7.6191 11.4119 0.7191 0.9465
6.8296 13.5118 0.7934 0.9412
6.8109 18.8144 1.0486 0.9230
12.4522 53.9957 2.9041 0.8010
1.3743 12.9195 0.6809 0.9493
-0.8300 56.4582 2.9592 0.7976
-26.7307 67.5659 3.8080 0.7475
-25.7997 47.5188 2.8337 0.8053
-28.4734 40.0461 2.5751 0.8213
-26.7233 29.3400 2.0798 0.8530
-26.1683 22.5545 1.8105 0.8708
-25.8218 17.3149 1.6293 0.8829
-25.4861 12.9464 1.4981 0.8918
-31.3033 11.4030 1.7460 0.8751
-36.8632 8.5792 1.9835 0.8593
-97.3433 10.5523 5.1314 0.6756
-97.3252 -1.2355 5.1010 0.6771
-49.6630 -26.8351 2.9584 0.7976
-38.1957 -27.0426 2.4527 0.8291
-29.6376 -26.8858 2.0971 0.8519
-26.5640 -30.6955 2.1274 0.8499
-26.5885 -39.4803 2.4945 0.8264
-26.6186 -52.1418 3.0681 0.7910
4.5537 -34.4649 1.8219 0.8700
10.7739 -41.8375 2.2641 0.8411
11.8133 -30.2137 1.7002 0.8781
16.1032 -29.9452 1.7819 0.8727
5.9464 -8.4347 0.5409 0.9595
19.2703 -21.3285 1.5064 0.8912
34.8435 -30.2761 2.4191 0.8312
44.3890 -30.0240 2.8085 0.8068
60.5769 -31.0780 3.5681 0.7613
84.3684 -31.1172 4.7127 0.6975
35.4502 -8.4004 1.9093 0.8642
62.4588 -7.0244 3.2940 0.7774
93.9377 12.2200 4.9645 0.6842
33.8192 8.6367 1.8293 0.8695
22.9415 8.9169 1.2899 0.9061
16.4522 8.8047 0.9779 0.9280
12.6717 8.8955 0.8113 0.9399
9.9450 8.9492 0.7012 0.9478
7.8129 8.9551 0.6228 0.9535
7.6186 11.2152 0.7106 0.9471
6.9188 13.4196 0.7913 0.9413
6.8096 18.3496 1.0257 0.9246
12.9090 53.9948 2.9095 0.8006
1.4665 12.8081 0.6756 0.9497
-0.3791 56.7726 2.9754 0.7966
-26.7290 69.1792 3.8867 0.7430
-25.7330 48.3164 2.8689 0.8031
-28.4715 40.7317 2.6045 0.8195
-26.7058 29.7976 2.0970 0.8519
-25.9865 22.7637 1.8105 0.8708
-25.8517 17.6373 1.6401 0.8822
-25.5051 13.2145 1.5054 0.8913
-30.5334 11.4009 1.7081 0.8776
-35.8018 8.6355 1.9301 0.8628
-97.2903 11.3369 5.1333 0.6755
-97.3394 -0.4546 5.1014 0.6771
-50.7559 -26.9017 3.0105 0.7945
-38.5990 -26.8658 2.4646 0.8283
-30.1183 -26.8844 2.1158 0.8507
-26.5627 -30.2008 2.1078 0.8512
-26.5866 -38.8019 2.4651 0.8283
-26.6158 -51.1190 3.0204 0.7939
4.3967 -35.4655 1.8729 0.8666
11.5105 -46.2304 2.4968 0.8263
11.4273 -29.9322 1.6791 0.8796
15.8164 -29.9863 1.7767 0.8730
5.9272 -8.5524 0.5453 0.9592
26.8992 -30.2566 2.1217 0.8503
33.9655 -29.9949 2.3748 0.8340
43.9132 -30.2185 2.7936 0.8077
59.1184 -30.9315 3.4967 0.7655
79.6871 -30.1189 4.4645 0.7109
62.6744 -7.5583 3.3084 0.7766
93.7099 11.4263 4.9475 0.6851
34.9748 8.6335 1.8880 0.8656
23.4940 8.9154 1.3169 0.9042
16.7351 8.7842 0.9905 0.9271
12.9617 8.9447 0.8253 0.9389
10.1065 8.9487 0.7074 0.9474
7.9399 8.9548 0.6272 0.9532
7.6682 11.0956 0.7069 0.9474
6.9181 13.1579 0.7791 0.9422
6.8302 17.9618 1.0071 0.9259
13.3676 53.9935 2.9151 0.8003
1.5667 12.7754 0.6745 0.9498
0.0737 54.7152 2.8675 0.8032
-28.7875 76.3227 4.2750 0.7213
-27.7823 53.1883 3.1448 0.7863
-28.4695 41.4325 2.6346 0.8176
-26.7581 30.3423 2.1202 0.8504
-25.8030 22.9715 1.8105 0.8708
-26.4519 18.3594 1.6875 0.8790
-25.5357 13.4914 1.5136 0.8908
-29.7962 11.3988 1.6719 0.8800
-35.8009 8.9398 1.9339 0.8626
-97.3390 12.1349 5.1408 0.6751
-97.3718 0.3265 5.1031 0.6770
-82.9186 -9.7732 4.3757 0.7157
-80.9409 -30.3440 4.5302 0.7073
-51.4982 -26.7681 3.0417 0.7926
-39.2645 -26.8640 2.4933 0.8265
-30.6074 -26.8831 2.1349 0.8494
-26.5613 -29.7151 2.0888 0.8524
-26.7611 -38.3922 2.4526 0.8291
-26.6130 -50.1282 2.9744 0.7967
4.2347 -36.5596 1.9288 0.8629
11.1122 -46.2094 2.4908 0.8267
11.1527 -29.9315 1.6740 0.8799
15.6348 -30.2273 1.7835 0.8726
20.5915 -30.2265 1.9167 0.8637
26.4588 -30.2466 2.1061 0.8513
33.4197 -29.9934 2.3534 0.8354
43.2698 -30.2901 2.7681 0.8093
15.4865 -8.2617 0.9199 0.9321
78.5163 -30.3986 4.4125 0.7137
63.5409 -8.1806 3.3575 0.7737
94.1897 10.7190 4.9681 0.6841
36.0913 8.6025 1.9445 0.8619
24.0703 8.9138 1.3452 0.9023
17.3545 8.9325 1.0229 0.9248
13.1859 8.9440 0.8350 0.9382
10.2708 8.9483 0.7139 0.9469
8.0239 8.9045 0.6282 0.9531
7.6677 10.9067 0.6987 0.9480
6.9174 12.9041 0.7673 0.9430
6.9728 17.9033 1.0069 0.9259
13.8280 53.9922 2.9209 0.7999
1.6725 12.7878 0.6759 0.9497
0.5367 57.2725 3.0017 0.7950
-27.2586 53.2220 3.1338 0.7870
-28.1984 41.7517 2.6404 0.8173
-26.8800 30.9781 2.1495 0.8485
-25.6179 23.1778 1.8105 0.8708
-26.0022 18.3581 1.6681 0.8803
-25.5695 13.7729 1.5221 0.8902
-29.0895 11.3969 1.6373 0.8824
-35.8001 9.2454 1.9378 0.8623
-97.1352 12.9018 5.1353 0.6754
-97.3187 1.1073 5.1006 0.6772
-82.9328 -30.3340 4.6279 0.7021
-52.9817 -27.0015 3.1164 0.7881
-40.2058 -27.0370 2.5392 0.8236
-31.1057 -26.8817 2.1546 0.8482
-26.4077 -29.0703 2.0583 0.8544
-26.5829 -37.4918 2.4086 0.8319
-26.6104 -49.1665 2.9299 0.7994
4.4679 -41.4824 2.1866 0.8461
10.9528 -47.2095 2.5399 0.8236
10.8797 -29.9307 1.6690 0.8802
4.3965 -8.6696 0.5094 0.9618
20.5426 -30.6810 1.9350 0.8625
26.2415 -30.4883 2.1082 0.8512
32.9434 -30.0467 2.3367 0.8364
43.2996 -30.8316 2.7857 0.8082
55.7789 -30.3341 3.3276 0.7754
77.6808 -30.7940 4.3793 0.7155
82.3055 -11.2685 4.3537 0.7169
44.3186 10.1884 2.3832 0.8335
24.6718 8.9121 1.3748 0.9003
17.6024 8.8821 1.0333 0.9241
13.4154 8.9434 0.8450 0.9375
10.4382 8.9478 0.7205 0.9464
8.1997 8.9540 0.6363 0.9525
6.9060 9.6577 0.6222 0.9536
6.9438 12.7076 0.7589 0.9436
7.0075 17.5740 0.9915 0.9270
14.2902 53.9909 2.9270 0.7995
1.7953 12.9203 0.6836 0.9491
0.9847 56.6068 2.9671 0.7971
-26.7996 53.3769 3.1302 0.7872
-27.7123 41.7504 2.6262 0.8181
-26.9087 31.5186 2.1719 0.8470
-25.4311 23.3826 1.8105 0.8708
-25.5776 18.3676 1.6503 0.8815
-25.6041 14.0576 1.5308 0.8896
-28.4114 11.3950 1.6043 0.8846
-35.5266 9.4794 1.9270 0.8631
-97.2837 13.7167 5.1488 0.6747
-97.3272 1.8884 5.1017 0.6771
-53.6938 -26.8239 3.1456 0.7863
-40.7609 -26.9379 2.5606 0.8223
-31.5572 -26.8326 2.1709 0.8471
-26.4064 -28.6044 2.0402 0.8556
-26.5812 -36.8590 2.3816 0.8336
-26.6630 -48.3333 2.8929 0.8016
4.2186 -42.3567 2.2308 0.8432
10.7565 -48.1135 2.5838 0.8208
10.6084 -29.9299 1.6642 0.8806
4.2940 -8.6386 0.5056 0.9621
20.5320 -31.2039 1.9576 0.8610
26.2523 -31.0006 2.1290 0.8498
32.6628 -30.2744 2.3340 0.8366
43.2783 -31.3427 2.8004 0.8073
55.1880 -30.5891 3.3068 0.7767
74.1958 -30.1036 4.1963 0.7256
66.8605 -9.7010 3.5407 0.7629
45.8692 10.1581 2.4621 0.8285
25.3005 8.9104 1.4058 0.8981
18.0571 8.9305 1.0557 0.9225
13.6505 8.9427 0.8552 0.9367
10.5497 8.8975 0.7233 0.9462
8.3324 8.9537 0.6410 0.9522
6.9079 9.4984 0.6155 0.9540
7.0766 12.7072 0.7623 0.9434
6.8050 16.6760 0.9439 0.9304
14.7544 53.9896 2.9332 0.7992
7.9470 54.0088 2.8610 0.8036
-26.7966 54.4563 3.1807 0.7842
-27.2314 41.7490 2.6123 0.8190
-26.9406 32.0736 2.1952 0.8455
-25.2426 23.5859 1.8105 0.8708
-25.5767 18.6798 1.6599 0.8809
-25.6394 14.3459 1.5397 0.8890
-27.7601 11.3932 1.5726 0.8867
-34.4295 9.4833 1.8716 0.8667
-29.5482 4.4083 1.5657 0.8872
-97.1637 2.6653 5.0940 0.6775
-54.7828 -26.8209 3.1967 0.7832
-41.3579 -26.8582 2.5844 0.8208
-32.1304 -26.8788 2.1954 0.8455
-26.4366 -28.1801 2.0250 0.8566
-26.5795 -36.2401 2.3553 0.8353
-26.6053 -47.3267 2.8453 0.8046
4.3180 -47.1910 2.4835 0.8271
11.1527 -51.8359 2.7788 0.8087
10.3386 -29.9292 1.6595 0.8809
4.2339 -8.6919 0.5067 0.9620
23.7877 -36.7913 2.2961 0.8390
26.2271 -31.4795 2.1473 0.8486
32.1288 -30.2622 2.3131 0.8380
50.0516 -36.8639 3.2578 0.7796
54.8687 -30.9901 3.3025 0.7769
72.9062 -30.2639 4.1370 0.7289
55.5075 -8.5091 2.9426 0.7986
47.1793 10.0518 2.5281 0.8243
25.9582 8.9086 1.4383 0.8959
18.4256 8.9295 1.0731 0.9213
13.8912 8.9421 0.8658 0.9360
10.7826 8.9469 0.7343 0.9454
4.5347 4.7951 0.3459 0.9739
6.7530 9.1305 0.5952 0.9555
7.2014 12.6907 0.7647 0.9432
6.8039 16.2983 0.9256 0.9317
8.8227 31.2947 1.7040 0.8779
8.3898 54.0075 2.8644 0.8034
2.2179 66.2978 3.4765 0.7667
-26.7588 55.4992 3.2290 0.7813
-20.6788 32.2659 2.0088 0.8577
-26.9694 32.6357 2.2188 0.8440
-25.0526 23.7877 1.8105 0.8708
-25.5759 18.9957 1.6696 0.8802
-25.6495 14.6229 1.5473 0.8885
-27.5149 11.5513 1.5639 0.8873
-34.4287 9.7809 1.8757 0.8664
-97.3301 15.3200 5.1637 0.6739
-97.3631 3.4523 5.1058 0.6769
-26.0299 -8.8167 1.4404 0.8958
-55.9079 -26.8177 3.2497 0.7801
-41.5073 -26.4841 2.5804 0.8210
-32.6576 -26.8774 2.2166 0.8442
-26.4353 -27.7297 2.0078 0.8577
-26.5778 -35.6347 2.3298 0.8369
-26.6078 -46.4548 2.8057 0.8070
-30.8023 -72.9605 4.1505 0.7282
1.9235 -23.0575 1.2126 0.9115
6.2423 -30.1892 1.6156 0.8838
10.0703 -29.9284 1.6549 0.8812
14.8293 -31.0745 1.8045 0.8712
23.3757 -36.7983 2.2847 0.8398
30.6414 -37.3838 2.5332 0.8240
31.9540 -30.5851 2.3181 0.8376
40.4483 -30.2945 2.6484 0.8168
53.5683 -30.8255 3.2390 0.7807
72.1575 -30.6341 4.1083 0.7305
65.5902 -10.5937 3.4820 0.7663
48.5613 9.9394 2.5977 0.8199
26.4297 8.8340 1.4604 0.8944
18.8062 8.9284 1.0910 0.9200
14.1381 8.9414 0.8767 0.9352
10.9597 8.9464 0.7414 0.9449
4.5345 4.7184 0.3430 0.9741
6.7526 8.9784 0.5888 0.9560
7.2812 12.5948 0.7624 0.9434
6.8029 15.9352 0.9080 0.9330
6.8239 23.4817 1.2815 0.9067
8.8342 54.0063 2.8680 0.8032
2.4171 58.2537 3.0556 0.7917
-26.7903 56.7235 3.2876 0.7778
-26.2844 41.7464 2.5854 0.8207
-26.9437 33.1426 2.2385 0.8427
-24.8610 23.9879 1.8105 0.8708
-25.5750 19.3152 1.6796 0.8795
-25.6579 14.9018 1.5550 0.8879
-27.5141 11.8116 1.5692 0.8870
-34.4278 10.0800 1.8800 0.8662
-97.2770 16.1125 5.1675 0.6737
-97.3100 4.2321 5.1046 0.6770
-33.7062 -21.1279 2.0852 0.8527
-33.1953 -26.8759 2.2384 0.8428
-26.4341 -27.2867 1.9910 0.8588
-26.5761 -35.0423 2.3049 0.8385
-26.7819 -45.9012 2.7851 0.8083
4.3320 -57.4981 3.0219 0.7938
5.9912 -30.1934 1.6132 0.8840
9.8034 -29.9277 1.6504 0.8815
17.0608 -36.5018 2.1116 0.8510
22.7885 -36.5177 2.2559 0.8416
30.1421 -37.3824 2.5167 0.8250
31.9575 -31.0838 2.3364 0.8365
39.4060 -30.0101 2.5959 0.8200
51.2534 -30.0431 3.1135 0.7882
71.9307 -31.2209 4.1095 0.7305
7.5989 12.2128 0.2511 0.9441
6.9501 14.9209 0.2873 0.9363
6.8167 20.9031 0.3838 0.9158
10.6375 53.9831 0.9604 0.8024
4.6634 63.0034 1.1027 0.7767
-26.3302 60.7764 1.1561 0.7672
-31.2213 53.3476 1.0789 0.7809
-33.1416 43.5799 0.9557 0.8033
-25.5606 26.3154 0.6403 0.8635
-23.4392 18.9261 0.5258 0.8865
-23.4117 14.6322 0.4819 0.8954
-27.5112 12.8818 0.5302 0.8856
-34.4244 11.3026 0.6324 0.8651
-97.3244 19.3809 1.7322 0.6723
-97.3521 7.4022 1.7042 0.6767
-83.0088 -3.7203 1.4504 0.7172
-45.5270 -26.5219 0.9197 0.8099
-35.7108 -27.0445 0.7819 0.8359
-27.9772 -27.0659 0.6795 0.8558
-26.6250 -32.8390 0.7379 0.8444
-26.5965 -42.3656 0.8731 0.8186
-26.6310 -56.5791 1.0915 0.7787
4.9337 -29.9142 0.5292 0.8858
8.8161 -30.1886 0.5489 0.8818
15.7598 -36.7811 0.6985 0.8521
17.5273 -30.2262 0.6099 0.8695
6.1649 -8.1744 0.1787 0.9599
29.1521 -30.2548 0.7334 0.8453
37.6685 -30.6660 0.8478 0.8234
49.0958 -30.9591 1.0131 0.7928
66.2056 -31.3245 1.2784 0.7460
24.9531 -8.3039 0.4590 0.9001
60.2298 9.8096 1.0652 0.7834
30.6024 8.8704 0.5562 0.8803
20.9398 8.9225 0.3973 0.9130
15.4847 8.9377 0.3121 0.9310
11.7149 8.7982 0.2557 0.9431
4.5334 4.3507 0.1097 0.9752
7.3214 8.9565 0.2019 0.9548
7.6375 12.0580 0.2491 0.9445
6.7984 14.2944 0.2763 0.9386
6.8549 20.4617 0.3767 0.9173
11.1374 54.2229 0.9662 0.8014
1.8277 22.2652 0.3899 0.9145
-26.7379 63.1007 1.1962 0.7602
-30.6484 53.3460 1.0739 0.7818
-33.1396 44.3107 0.9658 0.8014
-25.5595 26.7401 0.6457 0.8624
-29.3408 24.0828 0.6626 0.8591
-27.4984 17.4946 0.5689 0.8778
-27.5104 13.1516 0.5322 0.8852
-26.2435 8.8504 0.4834 0.8951
-97.2518 20.1789 1.7337 0.6721
-97.3499 8.1881 1.7052 0.6765
-82.9259 -3.0501 1.4484 0.7175
-82.9260 -23.6768 1.5053 0.7082
-46.1087 -26.3676 0.9271 0.8086
-36.0754 -26.8678 0.7851 0.8353
-28.2610 -26.9050 0.6811 0.8555
-26.5683 -32.2370 0.7292 0.8461
-26.5944 -41.6169 0.8621 0.8207
-26.8044 -55.7815 1.0802 0.7807
4.6874 -29.9135 0.5285 0.8859
8.8149 -31.1098 0.5644 0.8787
15.4083 -36.7731 0.6959 0.8526
17.0463 -29.9479 0.6015 0.8712
6.0903 -8.2117 0.1785 0.9599
28.4266 -29.9795 0.7211 0.8477
37.6652 -31.1692 0.8534 0.8224
49.0677 -31.4944 1.0177 0.7919
62.2649 -30.0737 1.2069 0.7583
24.8810 -8.5022 0.4590 0.9002
60.7959 9.4018 1.0738 0.7818
31.4504 8.8433 0.5703 0.8775
21.4115 8.9212 0.4049 0.9114
15.6865 8.8871 0.3147 0.9304
12.1143 8.9470 0.2629 0.9415
9.4775 8.9505 0.2275 0.9492
7.4003 8.9062 0.2021 0.9547
7.6351 11.8430 0.2460 0.9452
6.7976 14.0019 0.2717 0.9396
7.0153 20.3958 0.3765 0.9173
11.5913 54.2216 0.9678 0.8011
2.0039 22.2231 0.3895 0.9146
-28.6633 69.1845 1.3071 0.7411
-30.0808 53.3445 1.0690 0.7827
-33.1375 45.0573 0.9763 0.7995
-23.4274 24.9066 0.5968 0.8721
-29.3397 24.4785 0.6670 0.8582
-23.3593 15.1259 0.4857 0.8946
-27.5097 13.4235 0.5343 0.8847
-25.9584 8.9869 0.4795 0.8959
-97.3143 21.0077 1.7377 0.6715
-97.3477 8.9751 1.7064 0.6763
-97.3861 -2.7997 1.7006 0.6772
-51.2103 -21.0963 0.9668 0.8013
-48.1328 -27.0150 0.9634 0.8019
-36.6907 -26.8711 0.7938 0.8337
-28.7013 -26.8884 0.6865 0.8544
-26.5669 -31.7133 0.7221 0.8475
-26.6971 -41.0482 0.8547 0.8221
-26.6246 -54.2873 1.0554 0.7851
4.4417 -29.9128 0.5278 0.8861
11.1264 -40.5034 0.7332 0.8453
12.3706 -30.2007 0.5697 0.8776
16.7291 -29.9470 0.5988 0.8718
6.0309 -8.2695 0.1787 0.9599
27.9720 -29.9783 0.7157 0.8487
43.8098 -36.8502 0.9993 0.7953
46.3860 -30.3014 0.9671 0.8012
61.4880 -30.3091 1.1966 0.7601
62.7752 -22.0155 1.1612 0.7663
64.2532 9.4091 1.1335 0.7712
32.6025 8.8856 0.5899 0.8736
21.5358 8.7709 0.4059 0.9112
16.0721 8.9360 0.3210 0.9291
12.3191 8.9465 0.2658 0.9409
9.5789 8.9020 0.2283 0.9490
7.5216 8.9058 0.2035 0.9544
7.6345 11.6360 0.2429 0.9458
6.7656 13.6562 0.2660 0.9409
6.8123 19.3006 0.3573 0.9214
7.0529 31.7442 0.5677 0.8780
2.1919 22.3052 0.3912 0.9142
-25.6145 94.7317 1.7130 0.6753
-28.0144 69.1827 1.3028 0.7419
-29.3712 53.0769 1.0588 0.7845
-33.1354 45.8200 0.9870 0.7975
-27.4865 29.6959 0.7063 0.8505
-23.5671 19.9852 0.5394 0.8837
-23.3439 15.3832 0.4880 0.8942
-23.9804 11.9405 0.4676 0.8984
-25.7756 9.1558 0.4775 0.8963
-34.5294 7.7445 0.6177 0.8680
-97.3456 9.7630 1.7077 0.6761
-82.2507 -1.7043 1.4360 0.7196
-84.9183 -34.1880 1.5979 0.6933
-48.7289 -26.8377 0.9710 0.8005
-37.3127 -26.8694 0.8026 0.8320
-29.1653 -26.8871 0.6924 0.8533
-26.5654 -31.1996 0.7153 0.8488
-26.5529 -40.1184 0.8398 0.8249
-26.7982 -53.5502 1.0452 0.7870
4.2489 -30.2851 0.5338 0.8848
11.0429 -41.5006 0.7496 0.8421
12.0904 -30.2055 0.5679 0.8780
16.4147 -29.9461 0.5961 0.8723
5.9803 -8.3399 0.1791 0.9598
27.5243 -29.9770 0.7104 0.8498
43.3509 -37.0621 0.9955 0.7960
45.1689 -30.0261 0.9468 0.8049
60.4897 -30.4229 1.1819 0.7627
62.7737 -22.5820 1.1645 0.7658
85.6398 -8.9362 1.5030 0.7086
93.7095 12.9557 1.6513 0.6849
16.9447 4.4725 0.3060 0.9323
22.4112 8.9184 0.4210 0.9080
16.3787 8.9352 0.3257 0.9281
12.5285 8.9459 0.2687 0.9403
9.7338 8.9015 0.2302 0.9486
7.6446 8.9055 0.2049 0.9541
7.6339 11.4341 0.2400 0.9465
6.8296 13.5118 0.2643 0.9412
6.2351 17.2239 0.3197 0.9293
12.4522 53.9957 0.9672 0.8012
5.7459 54.0149 0.9481 0.8047
-20.6812 52.2748 0.9811 0.7986
-29.3386 54.0370 1.0733 0.7819
-29.4847 41.4684 0.8882 0.8158
-27.4852 30.1766 0.7125 0.8493
-23.4184 20.1843 0.5397 0.8837
-23.6391 15.8512 0.4968 0.8924
-23.8489 12.1147 0.4669 0.8985
-25.5325 9.3008 0.4743 0.8970
-34.6106 8.0549 0.6203 0.8675
-97.3490 10.5530 1.7092 0.6759
-97.3818 -1.2362 1.6999 0.6773
-84.8288 -33.3638 1.5911 0.6944
-49.6630 -26.8351 0.9853 0.7979
-38.0260 -26.9224 0.8133 0.8299
-29.6376 -26.8858 0.6985 0.8521
-26.7402 -30.8991 0.7133 0.8492
-26.5885 -39.4803 0.8308 0.8266
-26.6186 -52.1418 1.0219 0.7912
4.5540 -34.4671 0.6069 0.8702
10.7739 -41.8376 0.7541 0.8413
11.8120 -30.2103 0.5662 0.8783
16.1032 -29.9452 0.5935 0.8728
5.9601 -8.4541 0.1806 0.9595
19.2664 -21.3242 0.5016 0.8914
34.8380 -30.2713 0.8056 0.8314
44.3890 -30.0240 0.9354 0.8070
60.5108 -31.0441 1.1871 0.7618
84.3684 -31.1172 1.5696 0.6979
35.4456 -8.3993 0.6358 0.8644
75.4473 -8.4851 1.3252 0.7381
93.7074 12.1900 1.6494 0.6852
35.6370 9.1010 0.6420 0.8632
24.8724 9.6675 0.4658 0.8987
16.4522 8.8047 0.3257 0.9281
12.6717 8.8955 0.2703 0.9399
9.9450 8.9492 0.2335 0.9479
7.7693 8.9052 0.2063 0.9538
7.6186 11.2152 0.2366 0.9472
6.9188 13.4196 0.2635 0.9414
6.2298 16.7873 0.3125 0.9309
12.9090 53.9948 0.9690 0.8008
1.4701 12.8393 0.2256 0.9496
-26.7263 69.1722 1.2944 0.7433
-29.3608 55.1280 1.0902 0.7789
-32.9667 47.1626 1.0044 0.7944
-27.4838 30.6657 0.7188 0.8481
-28.9224 25.3355 0.6711 0.8574
-26.9119 18.3606 0.5687 0.8778
-23.7311 12.2953 0.4665 0.8986
-30.5334 11.4009 0.5689 0.8778
-32.7066 7.8889 0.5873 0.8741
-97.3468 11.3435 1.7107 0.6756
-83.8195 -0.3915 1.4631 0.7151
-83.2042 -31.9562 1.5558 0.7001
-50.7283 -26.8871 1.0021 0.7948
-38.5990 -26.8658 0.8209 0.8285
-30.2825 -27.0310 0.7085 0.8501
-26.7389 -30.4011 0.7067 0.8505
-26.5866 -38.8019 0.8210 0.8285
-26.6041 -51.0965 1.0055 0.7942
4.3967 -35.4655 0.6238 0.8668
11.5111 -46.2332 0.8316 0.8265
11.4273 -29.9322 0.5592 0.8797
15.8164 -29.9863 0.5918 0.8732
20.9515 -30.2308 0.6420 0.8632
26.8953 -30.2523 0.7066 0.8505
33.9655 -29.9949 0.7909 0.8342
44.0329 -30.3009 0.9330 0.8075
57.9704 -30.3308 1.1420 0.7697
79.6871 -30.1189 1.4870 0.7112
93.7052 11.4257 1.6477 0.6855
35.9762 8.8807 0.6468 0.8622
25.1992 9.5625 0.4705 0.8978
16.7351 8.7842 0.3299 0.9272
12.9617 8.9447 0.2749 0.9389
10.0521 8.9006 0.2344 0.9477
7.8956 8.9048 0.2077 0.9535
7.6328 11.0444 0.2343 0.9477
6.9181 13.1579 0.2595 0.9423
6.2475 16.4295 0.3068 0.9321
13.3676 53.9935 0.9709 0.8005
1.5673 12.7803 0.2248 0.9498
-28.6429 75.9395 1.4167 0.7227
-28.7946 55.1264 1.0856 0.7797
-32.7154 47.6117 1.0084 0.7937
-27.4825 31.1637 0.7253 0.8469
-28.5914 25.4539 0.6682 0.8580
-23.3913 16.2351 0.4970 0.8923
-27.5066 14.5327 0.5430 0.8830
-29.7962 11.3988 0.5569 0.8802
-41.5935 10.3863 0.7483 0.8424
-97.3446 12.1356 1.7123 0.6754
-97.3070 0.3263 1.6985 0.6775
-82.8945 -9.7704 1.4569 0.7161
-45.4752 -23.6374 0.8947 0.8146
-39.2645 -26.8640 0.8304 0.8267
-30.7566 -27.0141 0.7145 0.8489
-26.5613 -29.7151 0.6957 0.8526
-26.7611 -38.3922 0.8169 0.8293
-26.5102 -49.9345 0.9868 0.7976
4.2347 -36.5595 0.6423 0.8631
11.1130 -46.2124 0.8296 0.8268
11.1527 -29.9315 0.5575 0.8800
15.6329 -30.2237 0.5939 0.8727
20.5888 -30.2226 0.6383 0.8639
26.4550 -30.2422 0.7013 0.8515
33.4197 -29.9934 0.7838 0.8356
43.3621 -30.3548 0.9239 0.8092
15.4843 -8.2605 0.3063 0.9322
78.5026 -30.3933 1.4694 0.7141
66.1202 -8.5126 1.1637 0.7659
94.1493 10.7144 1.6540 0.6845
44.0865 10.5082 0.7912 0.8342
25.3895 9.4024 0.4726 0.8973
17.3545 8.9325 0.3407 0.9249
13.1859 8.9440 0.2781 0.9382
10.2156 8.9002 0.2365 0.9472
8.0239 8.9045 0.2092 0.9532
7.6323 10.8564 0.2316 0.9483
6.9174 12.9041 0.2556 0.9431
6.9728 17.9033 0.3354 0.9260
13.9808 54.5892 0.9836 0.7982
1.6679 12.7531 0.2245 0.9498
-26.3597 71.6211 1.3321 0.7369
-28.6758 55.9890 1.0980 0.7775
-33.1264 49.0484 1.0331 0.7892
