ply
format ascii 1.0
element vertex 1574
property float32 x
property float32 y
property float32 z
property float32 I
end_header
34.8859 -35.1839 11.4389 0.8159
44.3008 -35.0265 13.0383 0.7931
12.3811 -7.5634 3.3496 0.9422
18.3793 -8.3792 4.6634 0.9204
18.6421 -5.9125 4.5152 0.9229
20.8018 -3.9250 4.8872 0.9168
38.7681 -2.5571 8.9698 0.8526
61.5404 10.9061 14.4291 0.7737
30.6486 9.3475 7.3976 0.8767
20.7725 9.1934 5.2444 0.9110
15.5231 9.2480 4.1716 0.9285
12.4501 9.6212 3.6326 0.9374
9.3160 9.1894 3.0210 0.9477
7.1369 8.9786 2.6479 0.9540
5.6633 9.2168 2.4975 0.9566
4.2699 9.3017 2.3629 0.9589
3.3222 10.3814 2.5165 0.9562
3.5749 18.6803 4.3909 0.9249
1.3792 20.1168 4.6552 0.9206
-0.6420 12.2936 2.8421 0.9507
-1.8740 10.7362 2.5161 0.9562
-3.3819 11.1923 2.6993 0.9531
-32.4411 54.7763 14.6976 0.7700
-32.4759 42.2507 12.3029 0.8035
-34.5531 35.2116 11.3895 0.8167
-29.2488 23.3734 8.6439 0.8575
-30.6708 18.9555 8.3242 0.8624
-30.7565 14.2152 7.8224 0.8701
-37.5267 12.1165 9.1041 0.8505
-48.7411 -28.6965 13.0582 0.7928
-34.2313 -26.1710 9.9480 0.8379
-29.6558 -28.9508 9.5681 0.8435
-29.6780 -36.9417 10.9400 0.8232
-29.7584 -47.8722 13.0135 0.7934
-33.4053 -71.7872 18.2799 0.7225
1.3695 -29.1214 6.7306 0.8872
5.0011 -29.5559 6.9205 0.8842
8.6936 -29.3195 7.0602 0.8820
15.2295 -35.1475 8.8434 0.8545
20.5793 -35.1624 9.4060 0.8460
22.4353 -29.5034 8.5571 0.8589
34.0392 -35.0496 11.2798 0.8183
43.5550 -35.1774 12.9255 0.7947
56.3984 -35.2617 15.3561 0.7610
18.3662 -8.6044 4.6824 0.9201
18.6729 -6.1361 4.5378 0.9225
20.9472 -4.1779 4.9313 0.9160
39.1542 -2.9907 9.0658 0.8511
90.4089 15.0568 21.1600 0.6864
31.7559 9.3264 7.6411 0.8730
21.3188 9.1719 5.3580 0.9091
15.7915 9.1872 4.2179 0.9277
12.7196 9.6205 3.6819 0.9366
9.5007 9.1791 3.0499 0.9472
7.2708 8.9548 2.6630 0.9538
5.7846 9.1990 2.5087 0.9564
4.3871 9.3014 2.3743 0.9587
3.3793 10.1943 2.4795 0.9569
3.5538 17.5803 4.1408 0.9290
1.5771 19.9655 4.6238 0.9211
-0.5095 12.1818 2.8149 0.9512
-1.9052 11.6257 2.7198 0.9528
-6.5643 22.5674 5.4260 0.9080
-32.4378 56.0894 14.9588 0.7664
-32.5082 43.2131 12.4843 0.8009
-34.0065 35.3813 11.3297 0.8175
-29.0049 23.6755 8.6439 0.8575
-30.1545 19.0716 8.2372 0.8638
-30.7554 14.6038 7.8603 0.8696
-37.5623 12.5596 9.1439 0.8499
-48.8373 -28.0749 13.0052 0.7935
-34.9747 -26.1689 10.0846 0.8358
-29.6542 -28.3546 9.4722 0.8450
-29.6759 -36.1643 10.8004 0.8253
-29.7001 -46.6914 12.7755 0.7968
-34.7260 -72.6462 18.5893 0.7185
1.0667 -29.1206 6.7275 0.8873
1.2574 -7.9303 1.8537 0.9676
8.2839 -29.0396 6.9718 0.8834
3.2336 -7.6800 1.9238 0.9664
20.0918 -35.1610 9.3494 0.8468
21.9551 -29.5021 8.4902 0.8599
33.2606 -34.9663 11.1414 0.8203
42.6986 -35.2237 12.7791 0.7967
55.7806 -35.6854 15.2878 0.7620
18.3605 -8.8352 4.7041 0.9198
18.7040 -6.3621 4.5611 0.9221
19.7856 -4.1600 4.6677 0.9204
38.5041 -3.3431 8.9228 0.8533
90.4062 14.0944 21.1240 0.6869
33.0697 9.3408 7.9335 0.8684
22.4179 9.3704 5.6095 0.9051
16.1733 9.1862 4.2941 0.9265
12.8604 9.5188 3.6939 0.9364
9.6954 9.1747 3.0817 0.9467
7.4060 8.9304 2.6785 0.9535
5.9068 9.1806 2.5203 0.9562
4.5055 9.3011 2.3860 0.9585
3.4317 10.0038 2.4417 0.9575
3.5696 16.7614 3.9564 0.9321
1.0504 11.7446 2.7223 0.9527
-0.3847 12.2356 2.8262 0.9510
-1.7599 11.4845 2.6824 0.9534
-3.2564 11.6442 2.7914 0.9516
-32.4687 57.5110 15.2473 0.7625
-32.4707 44.1081 12.6449 0.7986
-33.3057 35.3793 11.2178 0.8192
-28.7578 23.9751 8.6439 0.8575
-29.4704 19.0697 8.1040 0.8658
-30.7543 14.9961 7.8993 0.8690
-35.0208 12.1153 8.5553 0.8589
-48.8905 -27.4348 12.9429 0.7944
-35.8134 -26.2215 10.2474 0.8334
-29.7844 -27.8933 9.4209 0.8458
-29.6738 -35.4061 10.6653 0.8273
-29.7022 -45.6424 12.5721 0.7997
-35.2586 -71.8360 18.4746 0.7200
0.8025 -30.5707 7.0602 0.8820
1.1741 -7.9361 1.8521 0.9676
7.9444 -28.9861 6.9388 0.8839
3.1046 -7.5930 1.8938 0.9669
16.4461 -29.4868 7.7948 0.8706
21.4824 -29.5008 8.4252 0.8609
32.6278 -35.0214 11.0505 0.8216
41.8295 -35.2421 12.6277 0.7989
55.9923 -36.6447 15.4491 0.7598
18.1992 -8.9912 4.6864 0.9200
19.0212 -6.6909 4.6552 0.9206
20.4313 -4.5176 4.8309 0.9177
38.6320 -3.7584 8.9610 0.8527
90.4077 13.1356 21.0914 0.6873
39.7751 10.7906 9.5147 0.8444
23.0834 9.3686 5.7514 0.9028
16.9310 9.3856 4.4692 0.9236
12.9746 9.3966 3.6985 0.9364
9.8985 9.1741 3.1158 0.9461
7.5426 8.9054 2.6943 0.9532
6.0300 9.1618 2.5322 0.9560
4.6250 9.3007 2.3981 0.9583
3.4308 9.6731 2.3695 0.9587
3.6336 16.2335 3.8405 0.9340
1.1627 11.6386 2.7003 0.9531
-0.4254 20.1995 4.6645 0.9204
-1.6334 11.4505 2.6703 0.9536
-2.9738 11.0754 2.6475 0.9540
-5.4110 13.4323 3.3433 0.9423
-32.4647 58.9239 15.5318 0.7587
-32.5029 45.1247 12.8390 0.7959
-32.6185 35.3774 11.1093 0.8207
-28.5076 24.2720 8.6439 0.8575
-28.8081 19.0679 7.9758 0.8678
-30.7532 15.3924 7.9396 0.8683
-34.2810 12.2589 8.4052 0.8612
-45.0332 10.2027 10.6602 0.8273
-48.8336 -26.7407 12.8537 0.7957
-36.5245 -26.1646 10.3727 0.8316
-29.8270 -27.3582 9.3441 0.8469
-29.6717 -34.6669 10.5348 0.8292
-30.2305 -45.4163 12.5956 0.7993
4.0594 -29.5533 6.8870 0.8847
7.6262 -29.0020 6.9232 0.8842
3.0220 -7.6154 1.8915 0.9669
16.0467 -29.4856 7.7501 0.8713
32.9211 -46.2091 13.0987 0.7922
32.6068 -35.7347 11.1683 0.8199
40.9326 -35.2188 12.4666 0.8012
55.7760 -37.3351 15.4955 0.7592
18.3489 -9.3032 4.7495 0.9190
18.9232 -6.8778 4.6484 0.9207
19.9836 -4.6366 4.7361 0.9192
38.1370 -4.1099 8.8556 0.8543
90.4163 12.1804 21.0628 0.6876
41.7016 10.8500 9.9481 0.8379
23.7833 9.3666 5.9013 0.9004
17.7062 9.5766 4.6474 0.9207
13.2607 9.3959 3.7521 0.9355
10.1062 9.1735 3.1511 0.9455
7.6972 8.8992 2.7164 0.9528
6.1542 9.1425 2.5444 0.9558
4.7458 9.3004 2.4105 0.9580
3.4299 9.3611 2.3017 0.9599
3.5470 15.1096 3.5831 0.9383
1.2944 11.7261 2.7236 0.9527
-0.1467 13.7297 3.1699 0.9452
-1.4738 11.1583 2.5985 0.9548
-2.8960 11.2500 2.6819 0.9534
-5.2492 13.4307 3.3291 0.9425
-32.4607 60.3901 15.8286 0.7547
-34.5281 49.0004 13.8391 0.7819
-32.4882 35.9780 11.1915 0.8195
-28.4886 24.7699 8.7155 0.8564
-28.6793 19.4135 7.9955 0.8675
-30.7521 15.7926 7.9812 0.8677
-33.1825 12.2558 8.1666 0.8648
-44.6975 10.6150 10.6062 0.8281
-48.9255 -26.1352 12.8059 0.7964
-37.3332 -26.1624 10.5248 0.8293
-29.6494 -26.6343 9.2014 0.8491
-29.6697 -33.9455 10.4085 0.8310
-30.9510 -45.4693 12.6986 0.7979
-0.0539 12.9931 2.5256 0.9484
-2.3083 18.4023 3.6051 0.9272
-3.1133 12.4301 2.4908 0.9491
-33.4672 63.2503 13.9096 0.7471
-34.5262 49.6841 11.7605 0.7815
-32.4869 36.4527 9.4913 0.8196
-29.6917 26.1590 7.6919 0.8511
-28.6786 19.6874 6.7617 0.8678
-28.7264 14.9906 6.2984 0.8763
-28.7380 10.8281 5.9695 0.8824
-43.1975 10.5576 8.6439 0.8343
-49.7005 -26.1330 10.9149 0.7955
-37.8553 -26.1609 8.9445 0.8290
-29.6484 -26.2853 7.7018 0.8509
-29.6685 -33.4997 8.6983 0.8333
-31.3491 -45.4132 10.7264 0.7986
3.5512 -29.5519 5.7856 0.8858
7.1374 -29.1374 5.8312 0.8849
2.8810 -7.6341 1.5861 0.9673
15.4583 -29.5850 6.4884 0.8728
20.2722 -29.4974 6.9572 0.8643
26.0182 -29.5009 7.6460 0.8519
33.1733 -29.5333 8.6334 0.8344
55.7374 -38.6898 13.1886 0.7585
18.9586 -10.0188 4.1681 0.9163
18.2431 -6.9820 3.7969 0.9235
20.1058 -5.0246 4.0284 0.9190
37.9635 -4.7418 7.4367 0.8556
96.4807 11.3403 18.8831 0.6731
44.6190 10.8071 8.9238 0.8294
24.8727 9.3129 5.1625 0.8974
18.0708 9.3825 3.9578 0.9204
13.4091 9.1643 3.1570 0.9360
10.2289 8.9743 2.6451 0.9461
8.3144 9.2905 2.4235 0.9505
6.5340 9.3612 2.2190 0.9545
5.0087 9.4188 2.0736 0.9575
3.6244 9.3971 1.9578 0.9598
3.5622 14.0986 2.8266 0.9425
3.8275 30.0104 5.8807 0.8840
0.1212 19.4740 3.7854 0.9237
-1.5529 13.5136 2.6441 0.9461
-2.8216 11.7828 2.3551 0.9518
-31.9947 62.0150 13.5642 0.7525
-34.1976 50.3169 11.8257 0.7804
-32.5247 37.2662 9.6147 0.8175
-29.0761 26.1573 7.6023 0.8527
-28.6774 20.1274 6.8103 0.8670
-28.7254 15.3712 6.3328 0.8757
-28.7022 11.1559 5.9858 0.8821
-43.0857 11.0051 8.6439 0.8343
-86.3465 0.7612 16.7847 0.7034
-50.9705 -26.1295 11.1337 0.7918
-38.8557 -26.2610 9.1160 0.8260
-30.1566 -26.1823 7.7629 0.8498
-29.7650 -32.9144 8.6260 0.8346
-32.0482 -45.4112 10.8039 0.7973
-29.8266 -55.3935 12.2291 0.7739
3.2405 -29.5510 5.7786 0.8859
6.8177 -29.1366 5.8166 0.8852
2.8193 -7.7118 1.5960 0.9671
15.0692 -29.5839 6.4536 0.8735
19.6063 -29.1722 6.8322 0.8666
25.5135 -29.5407 7.5873 0.8529
32.5252 -29.5667 8.5441 0.8360
55.7190 -39.5396 13.2806 0.7570
19.1484 -10.3746 4.2333 0.9151
18.2726 -7.2115 3.8184 0.9231
20.1719 -5.2640 4.0523 0.9186
38.3947 -5.2006 7.5313 0.8540
40.6783 -0.5696 7.9078 0.8472
47.5687 11.0005 9.4904 0.8196
25.5199 9.2546 5.2767 0.8953
18.5359 9.3812 4.0382 0.9188
13.8319 9.2443 3.2338 0.9345
10.4057 8.9401 2.6667 0.9456
8.4884 9.2892 2.4460 0.9500
6.6668 9.3434 2.2311 0.9543
5.1345 9.4184 2.0851 0.9572
3.7365 9.3963 1.9656 0.9596
3.3137 12.5648 2.5259 0.9484
4.0708 29.4785 5.7844 0.8858
0.2110 12.7115 2.4712 0.9495
-1.4105 13.5091 2.6402 0.9462
-2.6635 11.6551 2.3239 0.9525
-5.0975 14.1713 2.9274 0.9405
-31.1508 61.9478 13.4782 0.7539
-33.6739 50.6689 11.8257 0.7804
-32.5225 38.0534 9.7302 0.8155
-28.6652 26.3307 7.5659 0.8533
-30.7480 22.0602 7.3559 0.8571
-28.7243 15.7561 6.3683 0.8750
-28.7361 11.5135 6.0174 0.8815
-38.2320 10.1889 7.6909 0.8511
-52.2923 -26.1258 11.3626 0.7880
-39.5793 -26.1561 9.2216 0.8242
-30.7940 -26.1805 7.8566 0.8481
-29.8408 -32.3181 8.5504 0.8359
-32.3780 -44.8831 10.7575 0.7981
-29.7200 -53.8500 11.9557 0.7783
-29.2198 -72.3839 15.1732 0.7275
2.9306 -29.5501 5.7721 0.8860
6.5942 -29.5603 5.8872 0.8839
2.7925 -7.8914 1.6272 0.9665
14.6842 -29.5828 6.4198 0.8741
19.1347 -29.1183 6.7727 0.8676
24.9576 -29.5104 7.5126 0.8543
31.8423 -29.5550 8.4448 0.8378
55.7673 -40.4502 13.3914 0.7552
19.0646 -10.5864 4.2388 0.9150
17.8721 -7.2685 3.7503 0.9244
19.9779 -5.4353 4.0245 0.9191
39.2090 -5.7256 7.7023 0.8509
41.7484 -1.0177 8.1175 0.8435
48.9532 10.7870 9.7438 0.8152
26.0968 9.1586 5.3760 0.8934
18.9840 9.3619 4.1144 0.9174
14.7145 9.6149 3.4167 0.9309
10.5852 8.9051 2.6888 0.9452
8.6424 9.2630 2.4625 0.9497
6.8008 9.3251 2.2435 0.9541
5.2618 9.4181 2.0970 0.9570
3.8495 9.3954 1.9736 0.9595
3.3827 12.3075 2.4810 0.9493
3.5901 24.1471 4.7453 0.9053
0.3426 12.7018 2.4699 0.9495
-1.3116 13.9620 2.7259 0.9445
-2.5813 11.8606 2.3594 0.9517
-4.9441 14.2055 2.9237 0.9405
-30.3489 61.9456 13.4085 0.7550
-33.1465 51.0154 11.8257 0.7804
-32.5203 38.8597 9.8496 0.8134
-28.6636 26.8827 7.6386 0.8520
-30.7466 22.5459 7.4111 0.8561
-28.7232 16.1453 6.4048 0.8744
-28.7351 11.8605 6.0426 0.8810
-37.5314 10.4204 7.5713 0.8532
-53.8351 -26.2024 11.6381 0.7835
-39.6546 -25.6190 9.1768 0.8250
-31.4096 -26.1474 7.9441 0.8466
-29.6628 -31.4641 8.4054 0.8384
-28.7547 -39.0012 9.4188 0.8208
-29.7963 -52.6889 11.7659 0.7814
-30.0398 -72.2472 15.2090 0.7270
2.6213 -29.5493 5.7664 0.8861
6.2729 -29.5594 5.8737 0.8841
10.1199 -29.5701 6.0751 0.8804
14.0764 -29.1129 6.2857 0.8765
18.7382 -29.1697 6.7391 0.8683
24.4360 -29.5090 7.4473 0.8555
31.2712 -29.6345 8.3744 0.8390
47.5350 -35.2371 11.5017 0.7858
62.0052 -35.2773 13.8667 0.7477
17.6057 -7.3739 3.7103 0.9252
19.1048 -5.4112 3.8597 0.9223
38.3014 -5.9995 7.5358 0.8539
41.0391 -1.4266 7.9820 0.8459
51.7363 10.8389 10.2748 0.8062
27.5714 9.3561 5.6595 0.8881
19.9253 9.5704 4.2967 0.9139
15.0126 9.5890 3.4626 0.9300
10.7927 8.8902 2.7180 0.9446
8.7983 9.2361 2.4795 0.9493
6.9361 9.3063 2.2561 0.9538
5.3905 9.4177 2.1093 0.9567
3.9738 9.4191 1.9872 0.9592
1.4867 5.1974 1.0508 0.9782
3.5856 22.5087 4.4304 0.9113
0.4829 12.9275 2.5146 0.9487
-1.1090 13.2833 2.5910 0.9471
-2.4544 11.8685 2.3558 0.9518
-4.8033 14.2765 2.9279 0.9405
-29.6636 62.1710 13.3899 0.7553
-32.6155 51.3565 11.8257 0.7804
-34.4695 42.0677 10.5716 0.8012
-28.6621 27.4455 7.7137 0.8507
-30.7452 23.0391 7.4680 0.8551
-28.7222 16.5390 6.4425 0.8737
-28.7342 12.2104 6.0687 0.8805
-37.5303 10.8405 7.5934 0.8528
-55.1070 -26.1180 11.8539 0.7800
-40.1472 -25.3509 9.2294 0.8241
-32.0782 -26.1456 8.0442 0.8448
-29.5402 -30.6900 8.2800 0.8407
-28.7800 -38.1997 9.2968 0.8229
-29.6649 -51.2094 11.5037 0.7857
-30.9282 -72.2602 15.2784 0.7259
2.2712 -29.0197 5.6581 0.8882
5.9530 -29.5585 5.8610 0.8844
9.7782 -29.5692 6.0538 0.8808
13.7259 -29.1558 6.2639 0.8769
18.3338 -29.2020 6.7023 0.8689
23.3372 -28.7847 7.2031 0.8598
30.5164 -29.5259 8.2538 0.8411
46.3162 -35.0837 11.2943 0.7892
60.5284 -35.2732 13.6176 0.7517
17.8144 -7.6795 3.7708 0.9240
18.8384 -5.5474 3.8173 0.9231
23.5238 -3.9351 4.6361 0.9074
41.7035 -1.8829 8.1146 0.8436
54.2550 10.7804 10.7523 0.7982
28.5326 9.3534 5.8366 0.8848
20.0600 9.3804 4.3045 0.9137
15.0393 9.3878 3.4461 0.9303
11.0230 8.8896 2.7526 0.9439
8.9560 9.2086 2.4969 0.9490
7.0780 9.2939 2.2708 0.9535
5.5208 9.4174 2.1219 0.9565
4.0904 9.4213 1.9965 0.9590
1.5382 5.1740 1.0492 0.9782
3.4243 20.1488 3.9727 0.9201
0.9416 19.7212 3.8378 0.9227
-0.9673 13.2424 2.5809 0.9473
-2.3223 11.8483 2.3469 0.9520
-4.6436 14.2904 2.9207 0.9406
-29.4133 63.3278 13.5727 0.7524
-32.2679 51.9928 11.8945 0.7793
-34.5446 43.0628 10.7310 0.7985
-30.7035 30.0168 8.3464 0.8395
-30.7438 23.5398 7.5266 0.8540
-28.7210 16.9374 6.4813 0.8730
-28.7332 12.5635 6.0957 0.8800
-37.5291 11.2633 7.6164 0.8524
-56.6078 -26.1138 12.1178 0.7757
-40.8957 -25.2341 9.3408 0.8222
-32.7641 -26.1437 8.1477 0.8430
-29.5617 -30.0814 8.1981 0.8421
-28.8412 -37.4662 9.1906 0.8248
-29.8732 -50.3578 11.3813 0.7877
-1.1836 -22.3555 4.3516 0.9128
1.9686 -29.0189 5.6537 0.8882
5.6344 -29.5577 5.8489 0.8846
9.4388 -29.5682 6.0332 0.8812
13.3578 -29.1548 6.2336 0.8775
18.1538 -29.5925 6.7483 0.8681
22.8453 -28.7834 7.1430 0.8609
29.9866 -29.6218 8.1932 0.8422
45.2225 -34.9996 11.1155 0.7921
58.9988 -35.2065 13.3549 0.7558
19.0049 -8.4275 4.0411 0.9188
20.1986 -6.1764 4.1057 0.9175
21.4560 -3.8184 4.2362 0.9150
40.2782 -2.2374 7.8414 0.8484
58.5940 11.0122 11.5889 0.7843
29.5560 9.3506 6.0258 0.8813
20.5139 9.3346 4.3809 0.9123
15.3664 9.3719 3.4986 0.9293
11.2592 8.8889 2.7884 0.9432
9.1158 9.1803 2.5148 0.9486
7.2312 9.2935 2.2889 0.9532
5.6526 9.4170 2.1349 0.9562
4.2069 9.4210 2.0055 0.9588
1.6008 5.1871 1.0552 0.9781
3.5781 19.8078 3.9126 0.9213
1.1464 19.7162 3.8389 0.9227
-0.9084 14.5047 2.8250 0.9425
-2.1684 11.7048 2.3139 0.9527
-3.7721 12.0316 2.4510 0.9499
-29.4136 65.0876 13.8836 0.7475
-32.4795 53.5662 12.1767 0.7747
-34.5420 43.9869 10.8714 0.7962
-30.7340 30.6765 8.4407 0.8378
-30.7424 24.0486 7.5869 0.8530
-28.7199 17.3407 6.5213 0.8722
-28.7322 12.9196 6.1236 0.8795
-32.7773 10.2089 6.6731 0.8695
-58.5661 -26.2840 12.4780 0.7698
-47.8034 -28.8162 10.8497 0.7966
-33.3541 -26.0529 8.2268 0.8416
-29.6260 -29.5280 8.1306 0.8433
-28.8687 -36.7076 9.0775 0.8267
-29.7063 -48.9126 11.1238 0.7920
-32.6795 -72.1752 15.4005 0.7241
1.6664 -29.0181 5.6498 0.8883
5.3172 -29.5568 5.8375 0.8848
9.1017 -29.5673 6.0134 0.8816
12.9932 -29.1537 6.2042 0.8780
17.7333 -29.5913 6.7057 0.8689
22.3616 -28.7820 7.0848 0.8620
29.2882 -29.5384 8.0857 0.8441
44.2450 -34.9824 10.9638 0.7947
12.3793 -7.5624 2.8198 0.9426
19.9538 -9.0970 4.2627 0.9145
20.3318 -6.4484 4.1461 0.9168
21.4386 -4.0452 4.2408 0.9149
39.9314 -2.6338 7.7787 0.8495
61.5404 10.9061 12.1486 0.7752
30.6486 9.3475 6.2284 0.8776
20.7276 9.1735 4.4060 0.9118
15.5231 9.2480 3.5123 0.9290
11.9042 9.1994 2.9244 0.9405
9.2775 9.1514 2.5331 0.9483
7.3868 9.2930 2.3075 0.9528
5.7861 9.4166 2.1483 0.9560
4.3245 9.4207 2.0149 0.9586
3.4902 10.9061 2.2258 0.9544
3.5749 18.6803 3.6970 0.9254
0.8751 12.7640 2.4869 0.9492
-0.7574 14.5036 2.8230 0.9425
-2.0573 11.7865 2.3257 0.9524
-3.6438 12.0591 2.4487 0.9500
-29.4085 66.9173 14.2081 0.7424
-32.4411 54.7763 12.3747 0.7715
-34.5394 44.9353 11.0167 0.7938
-30.7323 31.3180 8.5290 0.8363
-30.7410 24.5658 7.6490 0.8518
-28.6840 17.7276 6.5545 0.8716
-28.7312 13.2791 6.1524 0.8790
-31.6085 10.2056 6.4564 0.8734
-86.2841 -37.6530 18.2993 0.6814
-48.7411 -28.6965 10.9944 0.7942
-34.2313 -26.1710 8.3757 0.8390
-29.6243 -28.9201 8.0474 0.8448
-29.0664 -36.1803 9.0212 0.8277
-29.7032 -47.7834 10.9364 0.7951
-33.1029 -71.1374 15.2515 0.7263
1.3646 -29.0172 5.6466 0.8884
5.0011 -29.5559 5.8268 0.8850
8.7668 -29.5664 5.9944 0.8819
12.6320 -29.1527 6.1758 0.8786
17.3181 -29.5902 6.6644 0.8696
21.9856 -28.9120 7.0602 0.8624
34.3733 -35.3936 9.5903 0.8179
43.5032 -35.1356 10.8697 0.7962
56.3984 -35.2617 12.9291 0.7626
20.0103 -9.3747 4.2953 0.9139
19.8628 -6.5272 4.0641 0.9183
21.4260 -4.2734 4.2468 0.9148
40.0134 -3.0563 7.8005 0.8491
90.8423 15.1290 17.9012 0.6871
31.8169 9.3443 6.4458 0.8736
21.3188 9.1719 4.5112 0.9098
15.7915 9.1872 3.5512 0.9283
12.1643 9.2004 2.9646 0.9397
9.4413 9.1217 2.5518 0.9479
7.5451 9.2926 2.3267 0.9524
5.9213 9.4163 2.1621 0.9557
4.4432 9.4204 2.0246 0.9584
3.5431 10.6885 2.1888 0.9552
3.5538 17.5803 3.4864 0.9295
1.7794 22.5264 4.3923 0.9120
-0.8066 19.2851 3.7519 0.9244
-1.9887 12.1353 2.3903 0.9511
-3.4417 11.8322 2.3953 0.9510
-32.4724 56.1494 12.6081 0.7677
-34.5367 45.9094 11.1671 0.7913
-30.7304 31.9728 8.6201 0.8347
-30.7395 25.0915 7.7130 0.8507
-28.7176 18.1628 6.6049 0.8707
-28.7302 13.6422 6.1822 0.8784
-30.5131 10.2026 6.2539 0.8771
-88.2156 -37.4116 18.6257 0.6767
-48.8373 -28.0749 10.9498 0.7949
-34.9747 -26.1689 8.4908 0.8369
-29.6227 -28.3244 7.9667 0.8462
-29.6759 -36.1643 9.0934 0.8264
-29.7001 -46.6914 10.7564 0.7981
1.0629 -29.0164 5.6440 0.8884
1.2574 -7.9302 1.5607 0.9678
8.3127 -29.1407 5.8903 0.8838
3.2149 -7.6355 1.6104 0.9668
16.9079 -29.5890 6.6243 0.8703
21.6846 -29.1385 7.0602 0.8624
28.0791 -29.5191 7.9192 0.8470
42.6986 -35.2237 10.7594 0.7981
55.7806 -35.6854 12.8716 0.7635
20.4597 -9.8454 4.4135 0.9116
19.7359 -6.7131 4.0521 0.9186
21.6543 -4.5529 4.3012 0.9138
38.5516 -3.3472 7.5219 0.8541
90.5396 14.1151 17.8117 0.6884
32.3030 9.1242 6.5247 0.8722
22.8125 9.5353 4.8061 0.9042
16.1852 9.1930 3.6181 0.9270
12.4124 9.1873 3.0017 0.9390
9.6073 9.0913 2.5711 0.9475
7.7060 9.2922 2.3465 0.9520
6.0582 9.4159 2.1764 0.9554
4.5631 9.4200 2.0346 0.9582
3.5518 10.3539 2.1277 0.9564
3.3355 15.6619 3.1126 0.9368
2.0907 23.3757 4.5619 0.9088
-0.6063 19.2841 3.7503 0.9244
-1.8547 12.1028 2.3800 0.9513
-3.3265 11.8949 2.4008 0.9509
-32.4687 57.5111 12.8375 0.7641
-34.5339 46.9107 11.3229 0.7887
-30.5833 32.4875 8.6729 0.8338
-30.7381 25.6260 7.7789 0.8495
-28.7165 18.5818 6.6486 0.8699
-28.7292 14.0087 6.2129 0.8779
-29.4838 10.1997 6.0643 0.8806
-29.1418 -8.0684 5.8777 0.8841
-48.8354 -27.4039 10.8851 0.7960
-35.9176 -26.2977 8.6530 0.8341
-29.6211 -27.7403 7.8884 0.8476
-29.6807 -35.4143 8.9818 0.8284
-29.7022 -45.6424 10.5852 0.8010
-36.7509 -74.8763 16.2131 0.7119
0.9346 -35.6048 6.9232 0.8649
1.1741 -7.9361 1.5594 0.9678
7.9865 -29.1398 5.8731 0.8842
3.0911 -7.5599 1.5876 0.9673
16.5025 -29.5879 6.5854 0.8711
21.3812 -29.3618 7.0602 0.8624
27.5002 -29.5175 7.8418 0.8484
41.8047 -35.2212 10.6256 0.8003
55.8904 -36.5781 12.9838 0.7617
20.3333 -10.0456 4.4084 0.9117
19.9109 -7.0039 4.1027 0.9176
38.9704 -8.6169 7.7581 0.8499
38.3852 -3.7344 7.4966 0.8546
90.5320 13.1537 17.7824 0.6888
39.8846 10.8203 8.0330 0.8450
23.0634 9.3604 4.8382 0.9035
16.9310 9.3856 3.7629 0.9241
12.6667 9.1736 3.0401 0.9383
9.7755 9.0601 2.5908 0.9471
7.8697 9.2917 2.3669 0.9516
6.1907 9.4059 2.1888 0.9552
4.6842 9.4197 2.0449 0.9580
3.5509 10.0117 2.0648 0.9576
3.3582 15.0033 2.9885 0.9393
2.3636 23.6595 4.6218 0.9077
-0.2702 12.8269 2.4938 0.9491
-1.7378 12.1826 2.3920 0.9511
-3.2787 12.2109 2.4576 0.9498
-34.8505 63.2542 14.0380 0.7451
-34.4742 47.8614 11.4654 0.7863
-32.5250 35.2760 9.3268 0.8224
-30.5919 26.0466 7.8099 0.8490
-28.7151 19.0063 6.6936 0.8691
-28.7282 14.3788 6.2446 0.8773
-28.7395 10.2772 5.9328 0.8831
-45.0332 10.2027 8.9754 0.8285
-48.8336 -26.7407 10.8223 0.7970
-36.5245 -26.1646 8.7333 0.8327
-29.6510 -27.1966 7.8208 0.8488
-29.8479 -34.8727 8.9225 0.8294
-30.2304 -45.4163 10.6049 0.8007
4.0594 -29.5533 5.7985 0.8855
7.6622 -29.1389 5.8566 0.8845
3.0089 -7.5824 1.5857 0.9673
16.1017 -29.5868 6.5476 0.8717
21.0166 -29.4995 7.0405 0.8628
32.8372 -35.9872 9.4697 0.8199
40.9326 -35.2188 10.4963 0.8025
55.7760 -37.3351 13.0465 0.7607
20.9365 -10.6151 4.5628 0.9088
18.5576 -6.7449 3.8381 0.9227
38.5083 -8.9346 7.6841 0.8512
37.4251 -4.0332 7.3168 0.8578
90.5293 12.1956 17.7561 0.6892
42.3359 11.0151 8.5033 0.8367
23.7833 9.3666 4.9686 0.9011
17.7614 9.6064 3.9251 0.9210
12.9359 9.1657 3.0817 0.9374
9.9460 9.0281 2.6110 0.9467
8.0363 9.2912 2.3879 0.9512
6.3203 9.3892 2.2001 0.9549
4.8065 9.4193 2.0555 0.9578
3.5500 9.6887 2.0057 0.9588
3.4661 14.7653 2.9481 0.9401
2.5972 23.5276 4.6011 0.9081
-0.1377 12.8852 2.5048 0.9488
-1.5903 12.0406 2.3608 0.9517
-3.0291 11.7670 2.3618 0.9517
-33.9989 63.2518 13.9585 0.7463
-34.5281 49.0004 11.6519 0.7833
-32.4882 35.9781 9.4228 0.8208
-30.0875 26.1601 7.7499 0.8500
-28.6793 19.4135 6.7318 0.8684
-28.7271 14.7527 6.2773 0.8767
-28.7386 10.6145 5.9551 0.8826
-43.2656 10.2749 8.6439 0.8343
-48.9255 -26.1352 10.7820 0.7977
-37.3333 -26.1624 8.8614 0.8305
-29.6494 -26.6343 7.7472 0.8501
-29.6697 -33.9455 8.7635 0.8322
-30.9136 -45.4144 10.6788 0.7994
-0.2291 55.2135 8.7450 0.7996
-2.6477 21.1081 3.3694 0.9175
-33.9208 64.1074 11.4874 0.7455
-32.4984 46.7660 9.0199 0.7940
-32.4869 36.4527 7.7336 0.8206
-28.7031 25.2880 6.0588 0.8565
-28.6786 19.6874 5.5095 0.8686
-30.7514 16.0473 5.4938 0.8689
-32.2130 12.1374 5.4522 0.8699
-44.6966 10.9240 7.2876 0.8300
-85.4349 -0.1331 13.5316 0.7075
-47.9983 -25.2379 8.5890 0.8028
-37.5861 -25.9749 7.2363 0.8311
-29.6564 -26.2924 6.2773 0.8517
-29.6289 -33.4550 7.0780 0.8344
-28.8830 -41.8407 8.0525 0.8139
3.5609 -29.6325 4.7271 0.8861
7.1572 -29.2183 4.7646 0.8853
2.8756 -7.6198 1.2899 0.9676
15.4574 -29.5833 5.2866 0.8736
19.9778 -29.0690 5.5866 0.8669
26.1185 -29.6147 6.2541 0.8522
33.1733 -29.5333 7.0346 0.8354
42.7002 -29.6401 8.2327 0.8102
18.7989 -9.9344 3.3676 0.9175
17.7687 -6.8004 3.0134 0.9258
20.0297 -5.0056 3.2700 0.9198
39.9609 -4.9913 6.3784 0.8495
44.6190 10.8071 7.2713 0.8303
25.0487 9.3788 4.2363 0.8973
17.6281 9.1526 3.1459 0.9227
13.3221 9.1049 2.5557 0.9367
10.6246 9.3215 2.2386 0.9444
8.4207 9.4093 1.9999 0.9501
6.5712 9.4144 1.8184 0.9546
5.1128 9.6146 1.7247 0.9569
3.6626 9.4961 1.6120 0.9596
3.5622 14.0987 2.3032 0.9428
3.6778 28.8368 4.6043 0.8889
0.1255 20.1668 3.1942 0.9216
-1.5481 13.4720 2.1478 0.9466
-33.0730 64.1051 11.4249 0.7467
-32.4955 47.8124 9.1562 0.7913
-34.4383 39.4587 8.2952 0.8089
-28.6886 25.8087 6.1120 0.8553
-28.6773 20.1274 5.5491 0.8677
-30.6061 16.3776 5.4979 0.8689
-31.5202 12.2512 5.3561 0.8720
-40.0468 10.2290 6.5464 0.8459
-85.7912 0.7563 13.5885 0.7065
-49.4015 -25.3252 8.7927 0.7987
-38.5266 -26.0386 7.3650 0.8283
-30.1566 -26.1823 6.3253 0.8507
-29.7297 -32.8753 7.0203 0.8357
-28.8804 -40.9225 7.9330 0.8164
-29.7790 -55.3052 9.9486 0.7754
3.2455 -29.5956 4.7156 0.8864
6.8366 -29.2175 4.7526 0.8856
2.8147 -7.6992 1.2984 0.9673
15.0685 -29.5825 5.2582 0.8742
19.5362 -29.0678 5.5471 0.8678
25.2086 -29.1877 6.1084 0.8554
32.4863 -29.5314 6.9535 0.8371
41.6514 -29.5569 8.0892 0.8132
20.0265 -10.8504 3.6075 0.9119
19.1628 -7.5628 3.2629 0.9200
20.0798 -5.2399 3.2868 0.9194
40.0198 -5.4208 6.3964 0.8491
47.4915 10.9827 7.7204 0.8209
25.5199 9.2546 4.2995 0.8959
18.2412 9.2320 3.2381 0.9205
13.5588 9.0618 2.5830 0.9361
10.8156 9.2923 2.2584 0.9439
8.5977 9.4088 2.0187 0.9497
6.7172 9.4140 1.8317 0.9542
5.2413 9.6143 1.7343 0.9566
3.7761 9.4958 1.6185 0.9595
3.5606 13.5009 2.2114 0.9450
3.8826 28.1155 4.4953 0.8914
0.3358 20.2342 3.2052 0.9213
-1.4077 13.4822 2.1470 0.9466
-31.5823 62.8061 11.1344 0.7522
-32.4925 48.8912 9.2977 0.7884
-34.5519 40.4278 8.4231 0.8062
-28.6652 26.3307 6.1648 0.8542
-28.8022 20.6642 5.6144 0.8663
-30.7492 16.8668 5.5548 0.8676
-30.7618 12.3251 5.2487 0.8744
-38.2319 10.1889 6.2667 0.8519
-86.5990 1.6618 13.7185 0.7041
-22.7220 -8.1068 3.8210 0.9069
-52.2923 -26.1258 9.2584 0.7892
-39.5793 -26.1561 7.5139 0.8252
-30.9998 -26.3555 6.4445 0.8481
-29.7278 -32.1956 6.9406 0.8374
-28.8779 -40.0312 7.8179 0.8188
-29.7200 -53.8500 9.7417 0.7795
2.9304 -29.5477 4.7029 0.8867
6.5940 -29.5592 4.7968 0.8846
2.7911 -7.8874 1.3252 0.9667
14.6834 -29.5813 5.2307 0.8748
19.1007 -29.0666 5.5087 0.8686
24.6835 -29.1863 6.0542 0.8566
31.9240 -29.6308 6.8986 0.8383
55.7673 -40.4502 10.9115 0.7565
20.0500 -11.1336 3.6324 0.9113
18.8692 -7.6741 3.2263 0.9208
19.6023 -5.3331 3.2176 0.9210
38.8386 -5.6716 6.2167 0.8530
48.9893 10.7950 7.9453 0.8161
26.0968 9.1586 4.3805 0.8940
19.0205 9.3798 3.3589 0.9177
13.8002 9.0174 2.6110 0.9354
11.0342 9.2829 2.2838 0.9433
8.7780 9.4083 2.0380 0.9492
6.8654 9.4136 1.8454 0.9539
5.3712 9.6139 1.7442 0.9564
3.8905 9.4955 1.6253 0.9593
3.5590 12.9489 2.1270 0.9471
3.5901 24.1471 3.8666 0.9059
0.5418 20.0888 3.1829 0.9218
-1.9637 20.9042 3.3255 0.9185
-30.7694 62.8038 11.0768 0.7533
-32.4545 49.9504 9.4346 0.7857
-34.5495 41.2844 8.5264 0.8041
-28.6636 26.8827 6.2241 0.8529
-28.5863 20.9618 5.6144 0.8663
-30.7480 17.2834 5.5866 0.8669
-30.7607 12.6966 5.2707 0.8739
-36.8101 10.2201 6.0507 0.8567
-85.6431 2.5323 13.5705 0.7068
-53.8351 -26.2025 9.4830 0.7847
-39.6546 -25.6190 7.4774 0.8260
-31.4472 -26.1787 6.4807 0.8473
-29.6708 -31.4725 6.8507 0.8393
-28.8755 -39.1651 7.7068 0.8211
-29.8919 -52.8580 9.6179 0.7820
2.6212 -29.5474 4.6982 0.8868
6.2724 -29.5574 4.7857 0.8848
10.1477 -29.6512 4.9637 0.8808
14.3027 -29.5808 5.2041 0.8754
18.6712 -29.0654 5.4715 0.8694
24.1676 -29.1848 6.0016 0.8577
30.7606 -29.1506 6.7122 0.8423
47.5350 -35.2371 9.3718 0.7869
61.7403 -35.1266 11.2506 0.7500
18.6898 -7.8280 3.2093 0.9212
19.4710 -5.5149 3.2052 0.9213
39.8893 -6.2483 6.3949 0.8492
52.4429 10.9870 8.4865 0.8049
27.8395 9.4471 4.6563 0.8878
19.9874 9.6003 3.5119 0.9141
14.0464 8.9718 2.6398 0.9347
11.2687 9.2823 2.3123 0.9426
8.9618 9.4078 2.0579 0.9487
7.0158 9.4132 1.8594 0.9536
5.5026 9.6136 1.7544 0.9561
4.0059 9.4952 1.6322 0.9591
1.4867 5.1973 0.8562 0.9783
3.5672 22.3933 3.5915 0.9123
0.7574 20.2741 3.2133 0.9211
-2.0761 24.8677 3.9524 0.9039
-29.9645 62.8016 11.0210 0.7544
-20.9173 32.9364 6.1797 0.8538
-34.4694 42.0677 8.6139 0.8023
-28.6621 27.4455 6.2852 0.8515
-28.4981 21.3551 5.6403 0.8657
-30.6463 17.6470 5.6011 0.8666
-30.7597 13.0712 5.2935 0.8734
-35.3684 10.2161 5.8308 0.8615
-87.3108 3.4884 13.8397 0.7020
-55.1070 -26.1180 9.6588 0.7812
-40.1472 -25.3509 7.5203 0.8251
-32.1166 -26.1769 6.5624 0.8455
-29.6690 -30.8238 6.7761 0.8409
-28.8732 -38.3234 7.5997 0.8234
-29.6333 -51.1549 9.3635 0.7871
2.2857 -29.2048 4.6397 0.8881
5.9528 -29.5577 4.7755 0.8851
9.7981 -29.6294 4.9428 0.8813
13.7640 -29.2367 5.1181 0.8773
18.2473 -29.0642 5.4354 0.8702
24.0052 -29.6088 6.0372 0.8570
30.1812 -29.2016 6.6515 0.8436
39.0102 -29.5495 7.7511 0.8202
60.0197 -34.9767 11.0026 0.7548
18.5806 -8.0098 3.2047 0.9213
19.5594 -5.7597 3.2294 0.9207
37.5725 -6.2853 6.0336 0.8570
44.3506 -2.0024 7.0316 0.8354
54.2551 10.7804 8.7611 0.7993
28.5326 9.3534 4.7557 0.8855
20.0392 9.3706 3.5038 0.9143
14.2977 8.9249 2.6695 0.9340
11.5091 9.2816 2.3418 0.9419
9.1493 9.4073 2.0784 0.9482
7.1685 9.4128 1.8740 0.9532
5.6356 9.6132 1.7649 0.9559
4.1971 9.6672 1.6692 0.9582
1.5382 5.1739 0.8549 0.9784
3.3467 19.6920 3.1636 0.9223
0.9744 20.4074 3.2359 0.9206
-1.5657 21.4339 3.4038 0.9166
-31.4700 67.7560 11.8325 0.7389
-20.3778 32.8344 6.1206 0.8551
-34.5446 43.0628 8.7438 0.7997
-28.6955 28.0537 6.3560 0.8500
-28.4968 21.8193 5.6845 0.8647
-30.5392 18.0097 5.6154 0.8662
-30.7587 13.4491 5.3170 0.8729
-33.9578 10.1914 5.6154 0.8662
-56.6078 -26.1138 9.8738 0.7769
-41.0808 -25.3483 7.6455 0.8224
-32.8033 -26.1749 6.6468 0.8437
-29.8304 -30.3549 6.7407 0.8417
-28.8709 -37.5048 7.4964 0.8256
-29.8732 -50.3578 9.2737 0.7889
-1.1835 -22.3528 3.5453 0.9133
1.9811 -29.2039 4.6361 0.8882
5.6472 -29.6245 4.7765 0.8850
9.4462 -29.5915 4.9198 0.8818
13.3949 -29.2357 5.0934 0.8779
18.1534 -29.5919 5.4985 0.8688
23.4993 -29.6074 5.9869 0.8581
29.7514 -29.3895 6.6236 0.8442
38.2666 -29.6161 7.6640 0.8220
58.9455 -35.1748 10.8720 0.7573
18.4717 -8.1910 3.2004 0.9214
19.2325 -5.8810 3.1854 0.9218
38.3217 -6.8200 6.1649 0.8542
43.0552 -2.3917 6.8298 0.8398
58.3721 10.9705 9.4071 0.7862
29.9081 9.4619 4.9684 0.8807
20.5139 9.3346 3.5696 0.9128
14.5594 8.8798 2.7010 0.9333
11.7557 9.2809 2.3722 0.9411
9.3406 9.4068 2.0996 0.9477
7.3237 9.4124 1.8889 0.9528
5.7602 9.5962 1.7727 0.9557
4.3167 9.6668 1.6768 0.9580
1.6008 5.1870 0.8598 0.9783
3.3650 18.6284 2.9982 0.9262
1.1912 20.4850 3.2500 0.9203
-1.3445 21.4667 3.4066 0.9166
-3.4901 18.8393 3.0345 0.9253
-30.7654 68.0789 11.8325 0.7389
-32.4447 53.5088 9.9112 0.7761
-34.3005 43.6794 8.7963 0.7986
-28.6939 28.6401 6.4211 0.8486
-28.6760 22.4321 5.7664 0.8629
-30.3508 18.3254 5.6154 0.8662
-30.6133 13.7655 5.3163 0.8729
-33.8502 10.5431 5.6154 0.8662
-58.5661 -26.2840 10.1673 0.7711
-42.0461 -25.3456 7.7758 0.8197
-33.5780 -26.2278 6.7483 0.8415
-29.7974 -29.6988 6.6633 0.8433
-28.8700 -36.7092 7.3968 0.8277
-29.7063 -48.9126 9.0638 0.7931
1.6770 -29.2031 4.6329 0.8883
5.3335 -29.6474 4.7711 0.8852
9.1009 -29.5649 4.8995 0.8823
13.0293 -29.2347 5.0694 0.8784
17.7329 -29.5906 5.4638 0.8696
23.0018 -29.6060 5.9380 0.8591
29.3728 -29.6237 6.6074 0.8446
37.3903 -29.5627 7.5495 0.8245
12.3775 -7.5613 2.2973 0.9430
18.4971 -8.4329 3.2198 0.9210
19.3078 -6.1236 3.2082 0.9212
37.3864 -7.0543 6.0259 0.8572
42.1161 -2.7779 6.6850 0.8429
61.7337 10.9404 9.9300 0.7758
30.6486 9.3475 5.0750 0.8783
20.7725 9.1934 3.5979 0.9121
14.9034 8.8788 2.7476 0.9322
12.0088 9.2802 2.4038 0.9404
9.5358 9.4062 2.1215 0.9472
7.4748 9.4036 1.9026 0.9525
5.8594 9.5359 1.7727 0.9557
4.4374 9.6665 1.6846 0.9578
3.5539 11.1054 1.8468 0.9539
3.4987 18.2818 2.9481 0.9274
1.4154 20.6448 3.2775 0.9196
-1.1296 21.6292 3.4304 0.9160
-30.0576 68.3943 11.8325 0.7389
-32.4411 54.7764 10.0831 0.7727
-33.8457 44.0328 8.7963 0.7986
-28.6922 29.2390 6.4883 0.8471
-28.7096 22.9425 5.8207 0.8617
-30.1591 18.6393 5.6154 0.8662
-30.7565 14.2152 5.3665 0.8718
-33.7391 10.8936 5.6154 0.8662
-84.6769 -36.9516 14.6329 0.6879
-43.0450 -25.3428 7.9115 0.8169
-34.2313 -26.1710 6.8247 0.8399
-29.6638 -28.9586 6.5659 0.8454
-29.0981 -36.2198 7.3586 0.8285
-29.7719 -47.8939 8.9318 0.7958
-33.6641 -72.3434 12.6379 0.7239
1.3733 -29.2022 4.6303 0.8883
5.0322 -29.7397 4.7773 0.8850
8.7662 -29.5646 4.8841 0.8826
12.7136 -29.3411 5.0647 0.8785
17.3176 -29.5894 5.4301 0.8704
22.5123 -29.6046 5.8906 0.8602
28.7681 -29.6220 6.5401 0.8460
36.5785 -29.5428 7.4470 0.8266
56.3984 -35.2617 10.5349 0.7639
19.3336 -9.0577 3.3815 0.9172
19.0545 -6.2615 3.1767 0.9220
38.3371 -7.6463 6.1916 0.8536
40.5671 -3.0986 6.4439 0.8481
90.9103 15.1403 14.5971 0.6885
31.6453 9.2939 5.2238 0.8750
21.3188 9.1719 3.6758 0.9103
15.2596 8.8778 2.7962 0.9310
12.2688 9.2795 2.4364 0.9396
9.7352 9.4057 2.1440 0.9467
7.6049 9.3663 1.9109 0.9523
5.9580 9.4747 1.7727 0.9557
4.5592 9.6662 1.6927 0.9576
3.5528 10.7178 1.7884 0.9553
3.5722 17.6709 2.8554 0.9296
1.6525 20.9202 3.3238 0.9185
-0.8854 21.1685 3.3557 0.9178
-3.4701 21.1745 3.3985 0.9168
-29.3899 68.8036 11.8500 0.7386
-34.5085 59.6700 10.9174 0.7564
-33.3872 44.3814 8.7963 0.7986
-28.6905 29.8504 6.5576 0.8456
-28.7082 23.4334 5.8694 0.8606
-29.9641 18.9512 5.6154 0.8662
-30.7554 14.6038 5.3924 0.8712
-33.6243 11.2429 5.6154 0.8662
-85.9465 -36.4492 14.7861 0.6852
-44.0799 -25.3400 8.0530 0.8139
-34.9747 -26.1689 6.9184 0.8379
-29.6622 -28.3622 6.5001 0.8469
-29.5550 -36.0170 7.3793 0.8280
-28.7720 -45.2322 8.4906 0.8048
1.2664 -34.5698 5.4790 0.8693
1.2574 -7.9301 1.2717 0.9680
8.3358 -29.2216 4.8129 0.8842
3.1947 -7.5877 1.3040 0.9672
16.9071 -29.5877 5.3974 0.8711
22.0305 -29.6033 5.8446 0.8612
28.1755 -29.6204 6.4749 0.8474
34.9324 -28.8170 7.1724 0.8324
46.2248 -29.5721 8.6913 0.8007
22.2102 -10.6877 3.9038 0.9050
18.7996 -6.3946 3.1451 0.9227
23.0740 -4.8514 3.7345 0.9089
40.2630 -3.4958 6.4010 0.8490
90.8385 14.1617 14.5612 0.6891
33.0698 9.3408 5.4427 0.8701
22.8605 9.5554 3.9243 0.9045
16.0701 9.1276 2.9272 0.9279
12.4993 9.2516 2.4630 0.9390
9.9389 9.4051 2.1673 0.9461
7.7664 9.3650 1.9270 0.9519
6.0582 9.4159 1.7733 0.9557
4.6822 9.6658 1.7011 0.9574
3.6317 10.5867 1.7727 0.9557
3.5696 16.7614 2.7143 0.9329
1.8803 21.0232 3.3430 0.9181
-0.6613 21.0344 3.3332 0.9183
-29.3977 70.8469 12.1487 0.7330
-34.5045 61.1171 11.1161 0.7526
-32.9251 44.7253 8.7963 0.7986
-28.6888 30.4750 6.6291 0.8441
-28.7068 23.9326 5.9195 0.8595
-29.4704 19.0697 5.5596 0.8675
-30.7544 14.9962 5.4192 0.8706
-33.5058 11.5911 5.6154 0.8662
-29.1370 -8.0671 4.7885 0.8848
-88.5912 -36.4915 15.1752 0.6784
-45.1521 -25.3370 8.2004 0.8108
-35.8095 -26.2186 7.0294 0.8355
-29.7156 -27.8289 6.4481 0.8480
-29.4944 -35.1922 7.2726 0.8303
-28.8737 -44.3692 8.3844 0.8070
1.0679 -40.6817 6.4456 0.8481
1.1741 -7.9360 1.2706 0.9680
8.0087 -29.2207 4.7988 0.8845
3.0809 -7.5351 1.2894 0.9676
16.5014 -29.5859 5.3655 0.8718
21.5561 -29.6020 5.7999 0.8622
27.5945 -29.6188 6.4116 0.8488
34.2011 -28.8150 7.0832 0.8343
45.1773 -29.5667 8.5516 0.8036
22.0795 -10.9083 3.9006 0.9051
19.1366 -6.7315 3.2130 0.9211
22.9724 -5.0795 3.7264 0.9091
40.2435 -3.9152 6.4040 0.8490
90.9049 13.2079 14.5491 0.6893
39.5436 10.7278 6.4895 0.8471
23.0835 9.3686 3.9457 0.9040
16.4014 9.0921 2.9702 0.9269
12.7205 9.2126 2.4876 0.9384
10.1365 9.3947 2.1890 0.9456
7.9308 9.3637 1.9435 0.9515
6.1970 9.4155 1.7853 0.9554
4.8064 9.6655 1.7097 0.9572
3.7413 10.5484 1.7727 0.9557
3.5673 15.9375 2.5867 0.9360
2.1388 21.4092 3.4078 0.9166
-0.4437 21.0654 3.3372 0.9182
-3.0423 21.3276 3.4122 0.9164
-35.3227 64.1113 11.5934 0.7435
-32.4595 45.0644 8.7963 0.7986
-28.6870 31.1134 6.7028 0.8425
-28.7054 24.4405 5.9712 0.8584
-28.8081 19.0679 5.4717 0.8694
-30.7533 15.3924 5.4469 0.8700
-33.3838 11.9380 5.6154 0.8662
-45.0334 10.2028 7.3134 0.8294
-89.2743 -35.6945 15.2280 0.6775
-46.2645 -25.3339 8.3542 0.8077
-36.4316 -26.0980 7.0980 0.8340
-29.7141 -27.2545 6.3861 0.8493
-29.5824 -34.5626 7.2055 0.8317
-28.8873 -43.3985 8.2571 0.8097
0.7075 -44.5709 7.0602 0.8348
4.0876 -29.7591 4.7576 0.8855
7.6835 -29.2198 4.7853 0.8848
2.9998 -7.5595 1.2881 0.9676
16.1005 -29.5845 5.3347 0.8725
21.0887 -29.6007 5.7564 0.8631
27.0247 -29.6172 6.3502 0.8501
33.7905 -29.0736 7.0602 0.8348
44.2684 -29.6322 8.4373 0.8059
20.4699 -10.3785 3.6350 0.9112
18.0106 -6.5461 3.0352 0.9253
20.2669 -4.7023 3.2952 0.9192
38.6425 -4.1644 6.1558 0.8544
90.6074 12.2061 14.4804 0.6906
42.3142 11.0094 6.9250 0.8377
23.7833 9.3666 4.0485 0.9017
16.9336 9.1587 3.0492 0.9250
12.9456 9.1726 2.5129 0.9378
10.3198 9.3674 2.2074 0.9451
8.0978 9.3625 1.9606 0.9511
6.3377 9.4151 1.7976 0.9551
4.9064 9.6152 1.7097 0.9572
3.6280 9.9017 1.6702 0.9582
3.5653 15.1875 2.4709 0.9388
2.3838 21.5942 3.4410 0.9158
-0.2264 21.1812 3.3550 0.9178
-2.8216 21.3633 3.4130 0.9164
-34.4595 64.1089 11.5277 0.7447
-32.2851 45.8173 8.8774 0.7969
-28.6502 31.7278 6.7708 0.8410
-28.7040 24.9572 6.0244 0.8572
-28.6793 19.4135 5.4852 0.8691
-30.7521 15.7927 5.4754 0.8694
-33.1736 12.2525 5.6011 0.8666
-44.6975 10.6150 7.2763 0.8302
-86.3639 -0.6992 13.6792 0.7048
-87.9202 -34.0998 14.9359 0.6826
-47.1952 -25.2109 8.4746 0.8052
-37.1953 -26.0657 7.1937 0.8320
-29.6574 -26.6415 6.3142 0.8509
-29.5882 -33.8522 7.1210 0.8335
-28.8846 -42.4336 8.1301 0.8123
-0.2251 54.2491 6.6610 0.8036
-32.4315 84.6071 11.1255 0.6941
-31.7831 60.0675 8.3442 0.7604
-34.5262 49.6841 7.4288 0.7836
-30.4280 34.1424 5.6154 0.8317
-29.6917 26.1590 4.8587 0.8526
-28.6786 19.6874 4.2712 0.8692
-30.7514 16.0473 4.2590 0.8695
-32.2130 12.1374 4.2267 0.8705
-44.4186 10.8561 5.6144 0.8317
-49.7005 -26.1330 6.8946 0.7975
-37.8553 -26.1609 5.6500 0.8307
-29.5894 -26.2330 4.8554 0.8527
-29.6765 -33.5087 5.4959 0.8349
-29.7029 -43.0285 6.4198 0.8100
7.0161 -58.3855 7.2204 0.7890
7.1572 -29.2183 3.6936 0.8858
2.8710 -7.6077 0.9984 0.9678
18.7079 -35.8044 4.9602 0.8498
20.3682 -29.6371 4.4155 0.8651
26.1165 -29.6124 4.8480 0.8529
33.2857 -29.6334 5.4719 0.8356
41.9848 -29.1434 6.2753 0.8139
20.6887 -10.9330 2.8731 0.9100
39.2389 -9.8061 4.9661 0.8496
41.0524 -5.1276 5.0798 0.8464
44.4966 10.7775 5.6215 0.8315
13.8644 5.1911 1.8178 0.9421
17.7940 9.2388 2.4618 0.9224
13.7459 9.3945 2.0443 0.9351
10.8526 9.5215 1.7727 0.9435
8.4864 9.4827 1.5625 0.9500
6.7427 9.6601 1.4465 0.9536
5.1138 9.6164 1.3373 0.9571
3.6626 9.4961 1.2497 0.9598
3.5622 14.0987 1.7855 0.9431
5.6854 44.5780 5.5178 0.8343
0.1568 25.2060 3.0950 0.9034
-1.5470 13.4622 1.6638 0.9469
-31.9087 61.8482 8.5451 0.7554
-34.5231 50.7958 7.5411 0.7807
-30.0722 34.4561 5.6154 0.8317
-29.0761 26.1573 4.8022 0.8542
-28.6774 20.1274 4.3019 0.8683
-30.6061 16.3776 4.2622 0.8695
-31.5202 12.2512 4.1522 0.8726
-44.3036 11.3162 5.6144 0.8317
-50.9653 -26.1268 7.0321 0.7939
-38.8636 -26.2664 5.7595 0.8278
-30.0798 -26.1157 4.8911 0.8517
-29.7438 -32.8910 5.4449 0.8363
-29.8766 -42.3341 6.3621 0.8115
-29.7238 -55.2026 7.6981 0.7767
3.2858 -29.9639 3.7012 0.8856
6.8366 -29.2175 3.6843 0.8861
2.8111 -7.6894 1.0052 0.9675
18.4037 -36.1303 4.9786 0.8492
19.6607 -29.2531 4.3277 0.8676
25.2786 -29.2688 4.7486 0.8557
32.5968 -29.6318 5.4089 0.8373
41.1939 -29.2322 6.2021 0.8158
54.5798 -29.5713 7.6220 0.7787
24.9923 -9.8634 3.2990 0.8974
38.5725 -10.0657 4.8947 0.8516
40.4417 -5.4779 5.0110 0.8483
47.5687 11.0005 5.9948 0.8214
25.5199 9.2546 3.3331 0.8964
18.1444 9.1830 2.4969 0.9213
14.0554 9.3937 2.0757 0.9341
10.9508 9.4084 1.7727 0.9435
8.6648 9.4822 1.5772 0.9496
6.8925 9.6597 1.4570 0.9533
5.2422 9.6160 1.3447 0.9568
3.7761 9.4958 1.2547 0.9597
1.4318 5.4292 0.6894 0.9776
3.3717 24.4158 3.0263 0.9054
0.3625 21.8459 2.6827 0.9157
-1.4066 13.4714 1.6631 0.9469
-31.5823 62.8060 8.6317 0.7533
-34.5199 51.9420 7.6577 0.7778
-29.7132 34.7663 5.6154 0.8317
-28.6652 26.3307 4.7791 0.8548
-30.7480 22.0602 4.6465 0.8586
-30.7492 16.8668 4.3062 0.8682
-30.7618 12.3252 4.0690 0.8750
-38.2320 10.1889 4.8581 0.8526
-86.6737 1.6633 10.6441 0.7051
-52.0991 -26.0293 7.1509 0.7908
-39.5793 -26.1561 5.8250 0.8260
-30.6318 -26.0427 4.9367 0.8504
-29.8488 -32.3267 5.4025 0.8375
-29.6470 -41.0973 6.2221 0.8153
-29.6885 -53.7928 7.5441 0.7807
2.9462 -29.7075 3.6655 0.8866
6.5805 -29.4987 3.7110 0.8853
12.6954 -35.8764 4.6727 0.8578
14.7562 -29.7279 4.0751 0.8748
19.2225 -29.2519 4.2978 0.8684
24.7520 -29.2673 4.7064 0.8569
31.9228 -29.6297 5.3478 0.8390
40.8854 -29.6558 6.2016 0.8158
53.2859 -29.5893 7.4837 0.7822
20.2393 -8.2313 2.6827 0.9157
22.7412 -6.1871 2.8938 0.9094
40.7096 -5.9448 5.0515 0.8472
48.9532 10.7870 6.1549 0.8171
26.0968 9.1586 3.3959 0.8945
18.5044 9.1254 2.5333 0.9202
14.3746 9.3928 2.1084 0.9331
11.1754 9.4017 1.7932 0.9428
9.0106 9.6577 1.6218 0.9482
7.0445 9.6593 1.4679 0.9530
5.3722 9.6156 1.3524 0.9566
3.8905 9.4955 1.2600 0.9595
1.4312 5.2072 0.6631 0.9785
3.5310 23.7493 2.9481 0.9078
0.6989 25.9121 3.1828 0.9008
-5.1914 55.2634 6.8154 0.7996
-30.7694 62.8038 8.5871 0.7544
-34.5167 53.1242 7.7787 0.7747
-29.3510 35.0726 5.6154 0.8317
-28.6637 26.8827 4.8251 0.8535
-30.7466 22.5459 4.6814 0.8576
-30.7480 17.2834 4.3309 0.8675
-30.7607 12.6966 4.0860 0.8745
-37.5315 10.4204 4.7826 0.8547
-87.5977 2.5901 10.7603 0.7025
-53.2882 -25.9363 7.2768 0.7875
-40.5745 -26.2133 5.9312 0.8231
-31.2477 -26.0126 4.9922 0.8489
-29.6708 -31.4725 5.3109 0.8400
-29.7754 -40.3857 6.1607 0.8169
-29.5953 -52.3336 7.3821 0.7848
2.6250 -29.5903 3.6475 0.8872
6.2901 -29.6409 3.7205 0.8850
12.3643 -36.1282 4.6886 0.8574
14.2733 -29.5202 4.0260 0.8762
18.7902 -29.2507 4.2687 0.8693
24.2347 -29.2659 4.6655 0.8580
30.8337 -29.2199 5.2158 0.8427
40.0024 -29.6533 6.1140 0.8182
50.7275 -28.8610 7.1661 0.7904
20.3146 -8.5085 2.7043 0.9151
38.8321 -10.9987 4.9555 0.8499
41.0578 -6.4313 5.1027 0.8458
51.5119 10.7919 6.4622 0.8089
27.8395 9.4471 3.6097 0.8883
18.8744 9.0657 2.5710 0.9191
14.7040 9.3919 2.1423 0.9321
11.4128 9.4010 1.8155 0.9422
9.1993 9.6571 1.6376 0.9477
7.1989 9.6588 1.4791 0.9526
5.5036 9.6153 1.3603 0.9563
4.0059 9.4952 1.2654 0.9593
1.4345 5.0152 0.6405 0.9792
3.5856 22.5088 2.7986 0.9122
2.1030 56.2947 6.9169 0.7969
-4.5577 54.5924 6.7264 0.8019
-29.9645 62.8016 8.5438 0.7555
-34.3313 54.0583 7.8629 0.7725
-28.9857 35.3751 5.6154 0.8317
-28.6621 27.4455 4.8725 0.8522
-30.7453 23.0391 4.7173 0.8566
-30.7468 17.7049 4.3564 0.8668
-30.7597 13.0712 4.1037 0.8740
-37.5303 10.8405 4.7965 0.8543
-86.9365 3.4734 10.6830 0.7042
-55.1070 -26.1180 7.4878 0.7821
-41.4222 -26.1560 6.0151 0.8208
-31.8771 -25.9817 5.0494 0.8473
-29.6690 -30.8238 5.2530 0.8416
-29.6929 -39.4114 6.0588 0.8197
-29.5333 -50.9823 7.2343 0.7886
2.2857 -29.2048 3.5969 0.8886
5.9977 -29.7803 3.7300 0.8848
11.9556 -36.1537 4.6755 0.8577
13.7640 -29.2367 3.9677 0.8779
18.4226 -29.3435 4.2541 0.8697
24.0041 -29.6074 4.6800 0.8576
30.2480 -29.2663 5.1678 0.8440
39.1440 -29.6509 6.0295 0.8205
49.6807 -28.9516 7.0602 0.7932
20.5768 -8.8703 2.7513 0.9137
22.6333 -6.6649 2.8970 0.9093
41.3068 -6.9100 5.1423 0.8447
53.8538 10.7006 6.7417 0.8015
28.5326 9.3534 3.6868 0.8860
19.2550 9.0039 2.6099 0.9179
15.0443 9.3909 2.1775 0.9310
11.6563 9.4003 1.8386 0.9414
9.3918 9.6566 1.6540 0.9472
7.3556 9.6584 1.4907 0.9523
5.6366 9.6149 1.3685 0.9561
4.1971 9.6672 1.2940 0.9584
1.5382 5.1739 0.6628 0.9785
3.5816 21.0745 2.6247 0.9175
2.3063 48.3018 5.9375 0.8229
-4.0062 54.8432 6.7518 0.8012
-30.1778 64.9738 8.7963 0.7492
-33.5485 54.0561 7.8116 0.7738
-28.6391 35.7011 5.6197 0.8316
-30.7035 30.0168 5.2722 0.8411
-30.7439 23.5399 4.7543 0.8555
-30.7456 18.1314 4.3826 0.8660
-30.7587 13.4491 4.1219 0.8735
-37.5291 11.2633 4.8110 0.8539
-56.5402 -26.0826 7.6453 0.7781
-42.3854 -26.1533 6.1153 0.8181
-32.8033 -26.1750 5.1528 0.8444
-29.8303 -30.3549 5.2256 0.8424
-29.6905 -38.5695 5.9764 0.8219
-29.6206 -49.9319 7.1285 0.7914
-1.1833 -22.3501 2.7481 0.9138
1.9811 -29.2039 3.5940 0.8887
5.7299 -30.0587 3.7572 0.8840
11.5655 -36.2305 4.6697 0.8579
13.3949 -29.2357 3.9485 0.8784
18.1403 -29.5706 4.2596 0.8695
23.5044 -29.6137 4.6422 0.8587
29.8404 -29.4774 5.1502 0.8445
38.3086 -29.6486 5.9479 0.8227
49.3778 -29.4654 7.0602 0.7932
20.4076 -9.0495 2.7411 0.9140
22.6473 -6.9251 2.9078 0.9090
40.7189 -7.2466 5.0782 0.8465
63.6781 -3.5372 7.8307 0.7734
58.6147 11.0161 7.3230 0.7863
30.1626 9.5425 3.8844 0.8803
19.6467 8.9399 2.6503 0.9167
15.3394 9.3555 2.2061 0.9302
11.9060 9.3996 1.8626 0.9407
9.5386 9.6062 1.6622 0.9469
7.4760 9.6081 1.4948 0.9521
5.7712 9.6145 1.3769 0.9558
4.3167 9.6668 1.2999 0.9582
1.6008 5.1870 0.6665 0.9784
3.5781 19.8078 2.4715 0.9221
2.7092 46.5918 5.7304 0.8285
-3.4539 55.1484 6.7846 0.8004
-3.4894 18.8358 2.3520 0.9257
-29.6597 65.6322 8.8433 0.7481
-32.7752 54.0539 7.7617 0.7751
-32.5132 41.4034 6.4638 0.8088
-30.7341 30.6765 5.3318 0.8395
-30.7425 24.0486 4.7924 0.8545
-30.7444 18.5631 4.4097 0.8653
-30.6133 13.7655 4.1214 0.8735
-37.5279 11.6885 4.8262 0.8535
-58.1077 -26.0782 7.8203 0.7736
-43.6714 -26.3253 6.2611 0.8142
-33.7319 -26.3480 5.2555 0.8416
-29.8416 -29.7429 5.1732 0.8438
-24.3299 -30.9364 4.8325 0.8533
-29.7143 -48.9258 7.0285 0.7940
1.6770 -29.2031 3.5916 0.8888
7.5703 -42.0812 5.2499 0.8417
9.1709 -29.7922 3.8274 0.8819
13.0293 -29.2347 3.9299 0.8790
17.7869 -29.6808 4.2486 0.8698
23.0755 -29.7008 4.6181 0.8594
29.3713 -29.6221 5.1220 0.8453
36.9574 -29.2204 5.7848 0.8271
12.3758 -7.5602 1.7807 0.9432
19.3828 -8.8367 2.6156 0.9177
24.1010 -7.6439 3.1045 0.9031
39.7266 -7.4959 4.9639 0.8497
64.2745 -4.2395 7.9091 0.7714
61.5404 10.9061 7.6739 0.7773
30.6486 9.3475 3.9343 0.8789
20.0500 8.8736 2.6922 0.9154
15.6334 9.3137 2.2344 0.9293
12.1624 9.3989 1.8873 0.9399
9.7886 9.6555 1.6882 0.9461
7.6766 9.6575 1.5148 0.9515
5.9075 9.6142 1.3855 0.9555
4.4374 9.6665 1.3060 0.9580
3.7922 11.8498 1.5277 0.9511
3.5750 18.6804 2.3353 0.9262
3.1727 46.2758 5.6953 0.8295
-1.2052 23.0779 2.8375 0.9111
-29.8692 67.9654 9.1154 0.7414
-32.4411 54.7764 7.8167 0.7737
-32.4759 42.2507 6.5432 0.8067
-30.7323 31.3180 5.3876 0.8379
-30.7410 24.5659 4.8317 0.8533
-30.6708 18.9555 4.4271 0.8648
-30.7565 14.2152 4.1603 0.8724
-37.5268 12.1165 4.8419 0.8531
-52.8662 10.2593 6.6122 0.8049
-26.7431 -8.0050 3.4276 0.8936
-87.1947 -38.0504 11.6812 0.6815
-44.4120 -26.1477 6.3280 0.8125
-34.2313 -26.1710 5.2907 0.8406
-29.4642 -28.7637 5.0558 0.8471
-29.6860 -36.9516 5.8199 0.8261
-29.7664 -47.8851 6.9229 0.7967
-33.6346 -72.2801 9.7887 0.7252
1.3733 -29.2022 3.5895 0.8889
7.8529 -46.4096 5.7794 0.8272
8.7880 -29.6382 3.7957 0.8829
3.2932 -7.6002 1.0170 0.9672
17.4534 -29.8214 4.2426 0.8700
22.6869 -29.8343 4.6020 0.8598
28.7081 -29.5603 5.0595 0.8470
36.1767 -29.2183 5.7098 0.8291
46.8788 -29.3098 6.7884 0.8003
19.3857 -9.0821 2.6285 0.9173
92.6186 -30.4356 11.9704 0.6751
40.6143 -8.1005 5.0850 0.8463
62.4296 -4.7685 7.6877 0.7770
90.9103 15.1403 11.3161 0.6898
31.7560 9.3264 4.0638 0.8751
20.6008 8.8630 2.7536 0.9136
15.9347 9.2706 2.2636 0.9284
12.3874 9.3692 1.9070 0.9393
9.9932 9.6549 1.7061 0.9455
7.8410 9.6571 1.5274 0.9511
6.0455 9.6138 1.3944 0.9553
4.5592 9.6662 1.3122 0.9578
3.7910 11.4363 1.4793 0.9526
3.5722 17.6710 2.2136 0.9299
3.5617 45.0880 5.5534 0.8334
-0.9619 22.9987 2.8264 0.9114
-29.8290 69.8315 9.3237 0.7364
-32.3768 55.9840 7.9407 0.7706
-32.5082 43.2131 6.6396 0.8042
-30.7305 31.9728 5.4451 0.8363
-30.7396 25.0915 4.8721 0.8522
-30.1545 19.0716 4.3809 0.8661
-30.7554 14.6038 4.1804 0.8718
-36.6828 12.2655 4.7492 0.8557
-49.8723 10.2162 6.2507 0.8145
-45.5749 -26.1994 6.4546 0.8091
-34.9747 -26.1689 5.3634 0.8386
-29.4864 -28.1941 5.0092 0.8484
-29.6839 -36.1740 5.7456 0.8281
-29.7081 -46.7040 6.7964 0.8001
1.2731 -34.7548 4.2702 0.8692
1.2574 -7.9300 0.9859 0.9682
8.3358 -29.2216 3.7311 0.8847
3.1725 -7.5350 1.0038 0.9676
17.1535 -30.0190 4.2452 0.8699
22.3293 -30.0048 4.5923 0.8601
28.2318 -29.6797 5.0295 0.8478
35.3653 -29.1741 5.6291 0.8313
46.3795 -29.6711 6.7603 0.8010
19.4357 -9.3526 2.6483 0.9167
22.0499 -7.5002 2.8597 0.9104
38.8462 -8.1676 4.8740 0.8522
47.7219 -4.1434 5.8815 0.8244
90.8385 14.1617 11.2883 0.6904
33.0698 9.3408 4.2193 0.8707
21.9312 9.1670 2.9186 0.9087
16.3177 9.2682 2.3042 0.9272
12.6353 9.3522 1.9301 0.9386
10.1907 9.6433 1.7227 0.9450
8.0082 9.6566 1.5404 0.9507
6.1842 9.6117 1.4033 0.9550
4.6822 9.6658 1.3187 0.9576
3.8077 11.0999 1.4409 0.9538
3.5696 16.7614 2.1042 0.9333
4.0296 45.0549 5.5541 0.8334
-1.7055 54.2474 6.6640 0.8035
-35.1002 84.5895 11.2449 0.6914
-31.9233 56.5451 7.9729 0.7698
-32.4708 44.1082 6.7251 0.8019
-30.7037 32.6154 5.5000 0.8348
-30.7381 25.6260 4.9137 0.8511
-29.4704 19.0697 4.3100 0.8681
-30.7544 14.9962 4.2012 0.8712
-35.0208 12.1153 4.5501 0.8613
-47.3343 10.2091 5.9456 0.8227
-29.1297 -8.0650 3.7112 0.8853
-46.5860 -26.1416 6.5591 0.8063
-35.9176 -26.2977 5.4658 0.8358
-29.5080 -27.6344 4.9639 0.8497
-29.6818 -35.4156 5.6738 0.8301
-29.7102 -45.6547 6.6881 0.8029
1.1034 -42.0347 5.1630 0.8441
1.1740 -7.9359 0.9850 0.9682
8.0086 -29.2207 3.7202 0.8851
3.0721 -7.5134 0.9967 0.9678
20.1628 -36.1505 5.0824 0.8464
21.8619 -30.0219 4.5600 0.8610
27.6747 -29.7048 4.9849 0.8491
35.1800 -29.6398 5.6483 0.8308
45.3322 -29.6681 6.6522 0.8039
19.5899 -9.6783 2.6829 0.9157
21.8990 -7.7032 2.8504 0.9107
38.5304 -8.5196 4.8452 0.8530
44.9573 -4.3738 5.5461 0.8336
90.9049 13.2079 11.2789 0.6906
39.8846 10.8203 5.0742 0.8466
22.5756 9.1624 2.9915 0.9065
16.7172 9.2671 2.3469 0.9259
12.9102 9.3500 1.9572 0.9378
10.3622 9.6039 1.7347 0.9447
8.1784 9.6561 1.5537 0.9503
6.3587 9.6612 1.4201 0.9545
4.8064 9.6655 1.3254 0.9574
3.8067 10.7330 1.3983 0.9551
3.5673 15.9375 2.0053 0.9363
4.4764 44.8076 5.5291 0.8340
-1.1321 53.7520 6.6014 0.8052
-33.5148 83.1971 11.0130 0.6967
-31.7758 57.6735 8.0851 0.7669
-23.7660 32.9950 4.9928 0.8488
-30.7267 33.3256 5.5657 0.8330
-30.5919 26.0467 4.9333 0.8505
-28.8081 19.0679 4.2418 0.8700
-30.7533 15.3924 4.2226 0.8706
-28.7048 10.2648 3.7431 0.8844
-44.5958 10.1036 5.6144 0.8317
-47.7337 -26.1384 6.6821 0.8031
-36.5245 -26.1646 5.5166 0.8344
-29.5290 -27.0847 4.9199 0.8509
-29.8559 -34.8821 5.6376 0.8311
-29.8837 -44.8954 6.6220 0.8047
0.9126 -57.4938 7.0602 0.7932
7.8247 -56.9662 7.0602 0.7932
7.6835 -29.2198 3.7097 0.8854
2.9913 -7.5380 0.9958 0.9678
19.4866 -35.8065 5.0054 0.8485
21.3470 -29.9632 4.5172 0.8622
27.1015 -29.7014 4.9369 0.8504
34.4460 -29.6376 5.5795 0.8327
44.3179 -29.6653 6.5481 0.8066
20.0142 -10.1475 2.7552 0.9135
21.2985 -7.7411 2.7825 0.9127
