ply
format ascii 1.0
element vertex 1527
property float32 x
property float32 y
property float32 z
property float32 I
end_header
-21.6045 9.0022 -0.4085 0.9106
-27.8654 7.8385 -0.5053 0.8906
-96.3121 14.9131 -1.7012 0.6771
-96.6378 3.1928 -1.6877 0.6792
-96.5480 -8.4759 -1.6917 0.6786
-95.3898 -20.1480 -1.7018 0.6770
-92.2732 -31.4772 -1.7018 0.6770
-38.1402 -18.3929 -0.7391 0.8442
-35.9978 -23.0702 -0.7463 0.8428
-29.3551 -24.2540 -0.6647 0.8587
-26.0176 -27.3918 -0.6594 0.8597
-25.0906 -33.7639 -0.7343 0.8451
-25.5455 -44.7731 -0.8998 0.8137
-26.0169 -61.8986 -1.1720 0.7644
-16.4216 -57.6932 -1.0470 0.7866
-3.6031 -22.8035 -0.4030 0.9118
-2.0271 -56.1029 -0.9799 0.7988
8.2261 -97.1467 -1.7018 0.6770
3.7222 -17.8957 -0.3191 0.9295
13.7878 -40.8305 -0.7522 0.8416
14.0159 -29.2949 -0.5669 0.8782
16.7062 -26.2457 -0.5431 0.8830
19.4240 -23.6578 -0.5343 0.8847
26.3389 -25.1727 -0.6359 0.8644
27.4351 -20.5193 -0.5980 0.8719
21.2846 -12.2314 -0.4285 0.9065
59.1318 -25.0690 -1.1211 0.7734
85.3079 -24.5668 -1.5496 0.7011
96.2522 -15.5132 -1.7018 0.6770
97.4194 -3.8212 -1.7018 0.6770
53.9277 4.3988 -0.9444 0.8054
21.9558 4.4960 -0.3912 0.9142
16.1464 5.3969 -0.2972 0.9342
14.0895 6.6876 -0.2722 0.9395
13.2860 8.3994 -0.2744 0.9391
12.5960 10.2769 -0.2838 0.9370
12.4245 12.9200 -0.3129 0.9308
12.4940 16.5978 -0.3626 0.9202
12.5588 21.6991 -0.4376 0.9046
12.5513 29.3528 -0.5572 0.8801
22.9411 78.7470 -1.4317 0.7203
12.8392 78.1250 -1.3820 0.7285
2.7314 64.5446 -1.1276 0.7722
-6.9993 89.2089 -1.5619 0.6991
-17.2097 85.3829 -1.5203 0.7058
-28.6745 86.6775 -1.5936 0.6940
-3.5367 7.5109 -0.1449 0.9673
-21.6898 34.5441 -0.7120 0.8494
-21.4991 26.5174 -0.5959 0.8723
-21.6017 20.9021 -0.5247 0.8867
-21.5840 16.3520 -0.4727 0.8973
-21.5945 12.5875 -0.4363 0.9048
-20.8918 9.0098 -0.3971 0.9130
-26.5464 7.8226 -0.4831 0.8952
-48.0273 8.0453 -0.8500 0.8230
-96.6468 4.3891 -1.6887 0.6791
-96.5574 -7.2760 -1.6902 0.6788
-95.6314 -18.9681 -1.7018 0.6770
-92.6550 -30.3348 -1.7018 0.6770
-48.3032 -22.5629 -0.9306 0.8079
-36.5572 -22.7966 -0.7519 0.8417
-29.3785 -23.6688 -0.6585 0.8599
-32.2386 -33.1125 -0.8066 0.8312
-25.4748 -33.4109 -0.7334 0.8453
-26.2744 -44.7568 -0.9059 0.8125
-24.8902 -57.2287 -1.0893 0.7791
-13.1984 -44.2841 -0.8066 0.8312
-15.5321 -90.9950 -1.6113 0.6912
-3.0996 -63.9001 -1.1167 0.7742
7.0254 -97.2409 -1.7018 0.6770
3.4609 -17.7355 -0.3154 0.9303
14.3029 -44.1475 -0.8100 0.8306
13.9178 -30.0374 -0.5779 0.8760
16.2534 -26.2444 -0.5388 0.8838
18.9386 -23.6565 -0.5289 0.8858
24.8969 -24.3901 -0.6083 0.8699
36.1527 -27.7423 -0.7954 0.8333
21.2033 -12.5356 -0.4299 0.9062
59.1294 -25.9344 -1.1270 0.7724
74.5233 -22.4615 -1.3586 0.7324
96.0532 -16.7010 -1.7018 0.6770
97.3648 -5.0245 -1.7018 0.6770
60.8703 4.2089 -1.0650 0.7834
23.5242 4.5151 -0.4181 0.9086
16.6021 5.3221 -0.3043 0.9326
14.1975 6.5252 -0.2727 0.9394
13.3403 8.2049 -0.2734 0.9393
12.6106 10.0319 -0.2813 0.9376
12.6306 12.8137 -0.3141 0.9305
12.4717 16.1491 -0.3562 0.9216
12.5893 21.1448 -0.4295 0.9062
12.5360 28.3434 -0.5410 0.8834
23.9993 78.7441 -1.4369 0.7194
13.8321 78.1222 -1.3848 0.7280
3.5601 65.0798 -1.1377 0.7705
-5.8927 89.2290 -1.5609 0.6992
-13.4379 71.1999 -1.2647 0.7484
-25.0162 78.8734 -1.4443 0.7182
-39.1863 85.9592 -1.6490 0.6853
-21.6969 35.5225 -0.7266 0.8466
-21.3719 27.0366 -0.6016 0.8712
-21.6046 21.4280 -0.5311 0.8854
-21.5829 16.7747 -0.4771 0.8964
-21.5935 12.9469 -0.4395 0.9042
-21.6027 9.6346 -0.4129 0.9097
-25.3748 7.8194 -0.4635 0.8992
-44.5825 8.0358 -0.7907 0.8342
-96.6557 5.5868 -1.6899 0.6789
-96.5668 -6.0781 -1.6889 0.6790
-95.8584 -17.7854 -1.7018 0.6770
-58.0704 -18.2209 -1.0622 0.7839
-52.4626 -23.7207 -1.0050 0.7943
-37.5788 -22.7938 -0.7672 0.8388
-29.3754 -23.0736 -0.6520 0.8612
-32.4754 -32.5416 -0.8025 0.8320
-26.1259 -33.4009 -0.7402 0.8440
-24.8443 -41.1477 -0.8390 0.8251
-25.2634 -56.1785 -1.0752 0.7816
-13.2365 -42.4876 -0.7768 0.8369
-16.0169 -87.3179 -1.5496 0.7011
-3.2847 -53.9386 -0.9432 0.8056
5.8237 -97.3202 -1.7018 0.6770
3.2258 -17.6905 -0.3139 0.9306
13.7779 -44.3902 -0.8113 0.8303
14.0144 -31.2520 -0.5978 0.8720
15.8075 -26.2432 -0.5348 0.8846
18.4627 -23.6551 -0.5238 0.8869
25.0652 -25.1692 -0.6200 0.8675
23.2221 -18.2801 -0.5159 0.8885
21.1641 -12.8679 -0.4323 0.9057
59.3177 -26.8954 -1.1368 0.7706
61.4630 -19.3565 -1.1248 0.7728
95.5278 -17.8280 -1.6962 0.6779
97.2953 -6.2268 -1.7018 0.6770
37.3692 2.1204 -0.6533 0.8609
24.9352 4.4672 -0.4422 0.9036
16.5732 5.0880 -0.3026 0.9330
14.2143 6.3215 -0.2715 0.9397
13.5986 8.1339 -0.2766 0.9386
12.6081 9.7781 -0.2785 0.9382
12.4769 12.3487 -0.3064 0.9322
12.4070 15.6616 -0.3488 0.9232
12.4422 20.3225 -0.4159 0.9091
12.4792 27.2982 -0.5239 0.8868
25.0655 78.7411 -1.4424 0.7185
14.9524 78.7693 -1.3995 0.7256
4.4111 65.7378 -1.1500 0.7683
-4.6728 87.1025 -1.5226 0.7054
-14.9006 84.6763 -1.5007 0.7090
-24.1065 79.3953 -1.4483 0.7175
-28.9730 65.6936 -1.2533 0.7503
-21.7010 36.5363 -0.7418 0.8437
-21.2166 27.5325 -0.6067 0.8702
-21.6076 21.9669 -0.5378 0.8840
-21.5816 17.2056 -0.4818 0.8955
-21.5925 13.3116 -0.4428 0.9035
-21.6018 9.9559 -0.4152 0.9092
-24.2946 7.8164 -0.4455 0.9029
-41.6132 8.0325 -0.7398 0.8440
-96.6646 6.7859 -1.6914 0.6786
-23.9267 -1.2095 -0.4182 0.9086
-96.0537 -16.5970 -1.7015 0.6771
-93.3761 -28.0367 -1.7018 0.6770
-52.4883 -22.9556 -1.0000 0.7952
-41.0260 -24.1966 -0.8314 0.8265
-30.1514 -23.0868 -0.6629 0.8591
-25.0688 -24.5068 -0.6119 0.8691
-31.6019 -39.3892 -0.8815 0.8171
-24.8936 -40.1015 -0.8239 0.8279
-24.2056 -52.0963 -1.0027 0.7947
-13.7951 -42.4275 -0.7787 0.8365
-17.0943 -87.1134 -1.5496 0.7011
-3.1953 -43.5879 -0.7629 0.8396
4.6212 -97.3848 -1.7018 0.6770
3.0011 -17.6941 -0.3133 0.9307
13.7724 -46.3888 -0.8446 0.8240
14.0612 -32.4231 -0.6169 0.8682
15.3336 -26.1828 -0.5296 0.8857
18.2226 -23.9517 -0.5253 0.8866
23.6809 -24.3741 -0.5932 0.8729
50.6405 -40.8865 -1.1361 0.7708
21.2088 -13.2566 -0.4366 0.9048
59.2834 -27.7677 -1.1427 0.7696
72.4807 -23.8143 -1.3317 0.7370
89.3445 -17.8189 -1.5902 0.6946
97.2110 -7.4282 -1.7018 0.6770
88.6876 3.9339 -1.5496 0.7011
26.6461 4.4348 -0.4715 0.8976
16.8123 4.9350 -0.3058 0.9323
14.4968 6.2338 -0.2754 0.9388
13.5200 7.8618 -0.2730 0.9393
12.6158 9.5368 -0.2760 0.9387
12.4999 12.0695 -0.3033 0.9328
12.4571 15.3318 -0.3448 0.9240
12.4627 19.8024 -0.4084 0.9106
12.4669 26.4040 -0.5097 0.8898
26.1102 78.6483 -1.4465 0.7178
15.9624 78.7664 -1.4028 0.7250
5.3145 66.8316 -1.1702 0.7647
-3.5104 85.0762 -1.4863 0.7113
-13.9167 85.2407 -1.5076 0.7078
-18.6411 64.2389 -1.1675 0.7652
-27.4671 64.4228 -1.2224 0.7556
-21.6981 37.5811 -0.7575 0.8406
-21.6501 28.8245 -0.6292 0.8657
-21.6108 22.5199 -0.5448 0.8826
-21.5804 17.6450 -0.4866 0.8945
-21.5915 13.6819 -0.4462 0.9028
-21.6009 10.2808 -0.4176 0.9087
-23.2950 7.8136 -0.4289 0.9064
-38.8329 7.9946 -0.6920 0.8533
-96.6734 7.9877 -1.6932 0.6784
-23.8849 -0.9117 -0.4172 0.9088
-96.1591 -15.3944 -1.6998 0.6773
-93.7153 -26.8811 -1.7018 0.6770
-53.8160 -22.7486 -1.0198 0.7916
-41.0402 -23.5266 -0.8257 0.8276
-30.5648 -22.8100 -0.6657 0.8585
-24.7956 -23.6479 -0.5981 0.8719
-24.0134 -29.1848 -0.6597 0.8597
-25.1033 -39.3461 -0.8147 0.8297
-24.8740 -51.8490 -1.0038 0.7945
-14.0026 -41.3226 -0.7616 0.8398
-16.2370 -77.6555 -1.3848 0.7280
-4.6673 -54.4379 -0.9537 0.8037
3.4179 -97.4344 -1.7018 0.6770
2.7837 -17.7388 -0.3134 0.9307
13.7664 -48.5591 -0.8810 0.8172
9.6838 -23.1075 -0.4373 0.9046
14.5044 -25.4837 -0.5118 0.8893
18.7905 -25.3417 -0.5507 0.8814
22.5705 -23.8128 -0.5727 0.8770
50.7367 -42.0099 -1.1498 0.7683
50.7355 -32.5909 -1.0526 0.7857
51.3003 -24.8058 -0.9946 0.7962
69.5470 -23.8062 -1.2831 0.7452
86.6893 -18.4056 -1.5469 0.7015
97.1118 -8.6284 -1.7018 0.6770
88.7294 2.8380 -1.5496 0.7011
28.6567 4.4063 -0.5061 0.8905
17.2286 4.8269 -0.3123 0.9309
14.6929 6.1042 -0.2777 0.9383
13.5268 7.6437 -0.2712 0.9397
13.0002 9.5773 -0.2818 0.9374
12.5721 11.8427 -0.3015 0.9332
12.4504 14.9425 -0.3395 0.9251
12.3735 19.1322 -0.3977 0.9129
12.5959 25.8452 -0.5019 0.8913
27.1923 78.6453 -1.4525 0.7168
16.9494 78.6344 -1.4041 0.7248
5.9569 64.7731 -1.1354 0.7709
-2.3570 81.5762 -1.4242 0.7215
-14.0213 93.0993 -1.6434 0.6862
-22.2711 80.4481 -1.4570 0.7161
-26.6720 64.7639 -1.2226 0.7556
-38.7475 69.0670 -1.3823 0.7285
-21.6552 29.5854 -0.6400 0.8636
-21.5101 22.9767 -0.5494 0.8817
-21.5874 18.1001 -0.4917 0.8934
-21.8623 14.2350 -0.4554 0.9009
-21.6000 10.6096 -0.4201 0.9082
-22.3670 7.8110 -0.4135 0.9096
-36.3813 7.9596 -0.6501 0.8616
-96.6517 9.1898 -1.6947 0.6781
-23.8904 -0.6165 -0.4171 0.9088
-96.2569 -14.1929 -1.6983 0.6776
-94.0402 -25.7214 -1.7018 0.6770
-58.1701 -23.7465 -1.0967 0.7777
-41.2790 -22.9907 -0.8247 0.8278
-30.9816 -22.5306 -0.6687 0.8579
-24.7939 -23.0683 -0.5911 0.8733
-24.8116 -29.4068 -0.6715 0.8573
-25.6098 -39.0672 -0.8154 0.8295
-25.0763 -50.6565 -0.9866 0.7976
-25.8613 -73.3257 -1.3572 0.7327
-19.2410 -86.6646 -1.5496 0.7011
-9.5276 -97.0277 -1.7018 0.6770
2.2140 -97.4692 -1.7018 0.6770
2.5790 -17.8732 -0.3152 0.9303
9.5973 -35.5194 -0.6426 0.8631
14.0548 -34.7352 -0.6541 0.8608
14.0047 -25.3285 -0.5052 0.8907
18.4202 -25.4945 -0.5490 0.8818
22.0137 -23.8076 -0.5660 0.8783
50.7576 -43.0951 -1.1622 0.7661
50.7588 -33.4987 -1.0615 0.7840
51.8737 -25.8787 -1.0119 0.7930
65.1734 -23.2124 -1.2076 0.7582
86.6047 -19.5087 -1.5496 0.7011
96.9978 -9.8273 -1.7018 0.6770
88.7577 1.7418 -1.5496 0.7011
30.8531 4.3546 -0.5439 0.8828
17.7046 4.7251 -0.3198 0.9293
14.7885 5.9308 -0.2781 0.9382
13.9242 7.6429 -0.2773 0.9384
12.9027 9.2619 -0.2772 0.9384
12.3907 11.3863 -0.2937 0.9349
12.4317 14.5508 -0.3341 0.9263
12.4981 18.8110 -0.3942 0.9136
12.5333 24.9301 -0.4871 0.8944
12.5758 34.9670 -0.6486 0.8619
17.9976 78.7608 -1.4102 0.7238
6.7622 64.7490 -1.1363 0.7707
-1.3480 81.5258 -1.4232 0.7217
-12.4758 90.4073 -1.5930 0.6941
-24.7790 94.0081 -1.6970 0.6778
-25.2142 63.4386 -1.1916 0.7610
-41.0677 75.3699 -1.4982 0.7094
-21.6605 30.3729 -0.6512 0.8614
-21.3022 23.3255 -0.5514 0.8813
-21.5896 18.5610 -0.4970 0.8923
-21.8612 14.6220 -0.4591 0.9001
-21.5991 10.9424 -0.4226 0.9077
-21.6116 7.8480 -0.4013 0.9121
-34.2101 7.9286 -0.6130 0.8689
-26.4856 2.8488 -0.4650 0.8989
-23.9380 -0.3219 -0.4179 0.9087
-96.3470 -12.9923 -1.6970 0.6778
-94.3507 -24.5579 -1.7018 0.6770
-58.2402 -22.9400 -1.0926 0.7785
-42.1184 -22.7811 -0.8358 0.8257
-32.5711 -23.0767 -0.6968 0.8524
-25.1485 -22.8251 -0.5928 0.8730
-24.8096 -28.6781 -0.6619 0.8592
-26.2913 -39.0462 -0.8217 0.8284
-25.7753 -50.4901 -0.9895 0.7971
-25.1379 -68.5626 -1.2747 0.7467
-20.3104 -86.4202 -1.5496 0.7011
-10.7254 -96.9026 -1.7018 0.6770
1.0099 -97.4891 -1.7018 0.6770
2.4424 -18.5447 -0.3265 0.9279
13.9359 -54.2284 -0.9773 0.7993
13.6975 -35.0928 -0.6575 0.8601
14.0746 -26.2144 -0.5194 0.8878
17.9441 -25.4932 -0.5442 0.8827
18.0844 -20.0493 -0.4713 0.8976
50.7126 -44.1464 -1.1736 0.7642
50.7655 -34.4108 -1.0705 0.7824
59.1289 -30.4161 -1.1606 0.7664
61.4958 -22.7624 -1.1445 0.7693
78.2388 -18.6426 -1.4039 0.7249
96.8690 -11.0247 -1.7018 0.6770
97.4918 0.7087 -1.7018 0.6770
34.3526 4.4165 -0.6046 0.8706
18.0449 4.5779 -0.3250 0.9282
15.1663 5.8659 -0.2838 0.9370
13.8501 7.3811 -0.2739 0.9391
12.9658 9.0666 -0.2762 0.9387
12.5048 11.2094 -0.2931 0.9350
12.5244 14.2978 -0.3318 0.9268
12.5205 18.3490 -0.3877 0.9150
12.4749 24.0683 -0.4732 0.8972
12.4909 33.4285 -0.6229 0.8670
19.0236 78.7579 -1.4143 0.7231
9.2132 78.7852 -1.3846 0.7281
-0.3390 81.0868 -1.4154 0.7230
-11.2332 89.5621 -1.5756 0.6969
-23.6535 94.4573 -1.6997 0.6774
-29.2872 76.4233 -1.4286 0.7208
-34.0143 64.3031 -1.2698 0.7475
-21.6661 31.1887 -0.6629 0.8591
-21.3911 24.0120 -0.5613 0.8793
-21.5920 19.0319 -0.5024 0.8912
-21.5883 14.8287 -0.4572 0.9005
-21.5981 11.2793 -0.4253 0.9071
-21.6071 8.1499 -0.4031 0.9118
-32.2733 7.9010 -0.5800 0.8755
-96.5301 11.5907 -1.6970 0.6778
-96.6129 -0.1058 -1.6864 0.6794
-96.4295 -11.7925 -1.6957 0.6780
-94.6469 -23.3905 -1.7018 0.6770
-59.8700 -22.7318 -1.1179 0.7740
-43.3842 -22.7776 -0.8553 0.8220
-42.5063 -29.3339 -0.9014 0.8133
-25.7794 -22.8233 -0.6010 0.8713
-25.0862 -28.2840 -0.6599 0.8596
-25.0997 -36.3005 -0.7704 0.8381
-25.0747 -47.6547 -0.9399 0.8062
-25.7424 -67.6152 -1.2629 0.7487
-21.3764 -86.1627 -1.5496 0.7011
-3.0429 -24.6984 -0.4344 0.9052
-0.1944 -97.4942 -1.7018 0.6770
11.5355 -96.8095 -1.7018 0.6770
15.4255 -63.2560 -1.1365 0.7707
13.2370 -35.1903 -0.6563 0.8604
13.2696 -25.4653 -0.5013 0.8915
17.7220 -25.8503 -0.5471 0.8822
17.8796 -20.3214 -0.4725 0.8974
28.2114 -25.1780 -0.6600 0.8596
35.3376 -24.5958 -0.7515 0.8418
22.8756 -12.1269 -0.4519 0.9016
61.8976 -23.7851 -1.1574 0.7670
86.0962 -21.6425 -1.5496 0.7011
96.7254 -12.2205 -1.7018 0.6770
97.4931 -0.4960 -1.7018 0.6770
38.0826 4.4185 -0.6692 0.8578
18.6215 4.4800 -0.3343 0.9262
15.3128 5.7060 -0.2852 0.9367
13.8417 7.1585 -0.2720 0.9396
12.8729 8.7668 -0.2719 0.9396
12.4103 10.8512 -0.2877 0.9362
12.5963 14.0264 -0.3291 0.9274
12.4912 17.8289 -0.3800 0.9166
12.4856 23.3775 -0.4626 0.8994
30.4854 -11.1824 -1.7018 0.8780
31.6092 -7.4337 -1.7018 0.8780
12.4557 -1.3805 -0.6568 0.9510
32.4699 0.3314 -1.7018 0.8780
17.2981 2.2756 -0.9144 0.9325
17.8355 4.5806 -0.9651 0.9289
14.9016 5.8139 -0.8383 0.9379
13.7985 7.4057 -0.8207 0.9392
12.9334 9.1006 -0.8288 0.9386
12.5679 11.3327 -0.8869 0.9345
9.5507 10.9679 -0.7622 0.9434
6.3543 9.3713 -0.5934 0.9557
5.9442 11.5512 -0.6808 0.9493
10.2679 27.7273 -1.5496 0.8883
7.5313 31.5861 -1.7018 0.8780
3.6768 32.2627 -1.7018 0.8780
-0.2312 32.4707 -1.7018 0.8780
-4.1358 32.2071 -1.7018 0.8780
-7.9803 31.4757 -1.7018 0.8780
-11.7089 30.2870 -1.7018 0.8780
-15.2409 28.6089 -1.6988 0.8782
-16.9402 24.2335 -1.5496 0.8883
-19.7325 22.0195 -1.5496 0.8883
-21.7496 19.0577 -1.5155 0.8906
-21.4217 14.6219 -1.3593 0.9013
-21.7662 11.2858 -1.2849 0.9065
-21.7749 8.1402 -1.2183 0.9111
-28.7398 6.9465 -1.5496 0.8883
-29.3668 3.4387 -1.5496 0.8883
-22.2096 -0.0895 -1.1640 0.9149
-32.2197 -4.0363 -1.7018 0.8780
-31.5002 -7.8830 -1.7018 0.8780
-30.3231 -11.6152 -1.7018 0.8780
-28.7055 -15.1788 -1.7018 0.8780
-24.7431 -17.1830 -1.5787 0.8863
-7.7751 -6.9244 -0.5456 0.9592
-6.1256 -6.9475 -0.4854 0.9636
-5.2494 -7.6399 -0.4858 0.9636
-15.0358 -28.7806 -1.7018 0.8780
-11.4643 -30.3805 -1.7018 0.8780
-7.7263 -31.5390 -1.7018 0.8780
-2.9253 -24.3316 -1.2843 0.9065
0.0306 -32.4716 -1.7018 0.8780
2.1661 -17.7349 -0.9364 0.9309
7.7857 -31.5244 -1.7018 0.8780
10.4911 -27.6436 -1.5496 0.8883
13.7404 -26.1808 -1.5496 0.8883
16.7902 -24.3376 -1.5496 0.8883
17.6048 -19.8910 -1.3921 0.8991
22.1174 -19.6228 -1.5496 0.8883
19.5340 -13.5110 -1.2448 0.9092
22.5925 -11.8920 -1.3380 0.9028
30.3449 -11.5581 -1.7018 0.8780
31.5150 -7.8236 -1.7018 0.8780
32.2273 -3.9755 -1.7018 0.8780
32.4715 -0.0697 -1.7018 0.8780
17.3076 2.0597 -0.9135 0.9326
18.8197 4.5863 -1.0152 0.9253
15.1606 5.7001 -0.8488 0.9372
13.8069 7.1919 -0.8159 0.9395
13.0168 8.9209 -0.8270 0.9387
12.4458 10.9469 -0.8687 0.9358
12.5896 14.1021 -0.9907 0.9271
6.5009 9.3371 -0.5963 0.9555
5.9521 11.2236 -0.6658 0.9504
10.6097 27.5983 -1.5496 0.8883
7.9209 31.4907 -1.7018 0.8780
4.0750 32.2149 -1.7018 0.8780
0.1699 32.4711 -1.7018 0.8780
-3.7376 32.2557 -1.7018 0.8780
-7.5908 31.5718 -1.7018 0.8780
-11.3338 30.4294 -1.7018 0.8780
-14.9122 28.8449 -1.7018 0.8780
-16.6396 24.4409 -1.5496 0.8883
-19.4590 22.2616 -1.5496 0.8883
-21.7482 19.5366 -1.5321 0.8895
-21.7552 15.2468 -1.3923 0.8991
-21.7652 11.6287 -1.2933 0.9059
-21.7741 8.4479 -1.2240 0.9107
-28.6518 7.3010 -1.5496 0.8883
-29.3221 3.8011 -1.5496 0.8883
-32.4704 0.2702 -1.7018 0.8780
-32.2671 -3.6379 -1.7018 0.8780
-31.5951 -7.4933 -1.7018 0.8780
-30.4642 -11.2398 -1.7018 0.8780
-28.8908 -14.8230 -1.7018 0.8780
-25.3943 -17.1742 -1.6066 0.8844
-22.3216 -19.3902 -1.5496 0.8883
-6.2621 -6.9278 -0.4894 0.9633
-5.2851 -7.4918 -0.4805 0.9639
-15.3473 -28.5129 -1.6970 0.8784
-11.8387 -30.2365 -1.7018 0.8780
-8.1153 -31.4411 -1.7018 0.8780
-3.2301 -24.3273 -1.2861 0.9064
-0.3705 -32.4694 -1.7018 0.8780
2.1933 -20.0087 -1.0549 0.9225
6.6691 -28.5117 -1.5346 0.8893
10.1488 -27.7711 -1.5496 0.8883
13.4160 -26.3485 -1.5496 0.8883
16.4883 -24.5432 -1.5496 0.8883
17.6047 -20.3930 -1.4119 0.8977
21.8733 -19.8945 -1.5496 0.8883
24.5865 -17.4586 -1.5803 0.8862
21.9078 -11.8794 -1.3061 0.9050
30.1998 -11.9320 -1.7018 0.8780
31.4159 -8.2123 -1.7018 0.8780
32.1757 -4.3733 -1.7018 0.8780
32.4681 -0.4708 -1.7018 0.8780
29.4012 3.1310 -1.5496 0.8883
18.8749 4.3535 -1.0152 0.9253
15.5523 5.6292 -0.8668 0.9359
13.7898 6.9679 -0.8097 0.9400
12.9869 8.6667 -0.8183 0.9394
12.5546 10.7705 -0.8669 0.9359
12.4925 13.6501 -0.9697 0.9286
6.6540 9.3096 -0.5997 0.9552
5.9621 10.9146 -0.6518 0.9514
10.9498 27.4652 -1.5496 0.8883
8.3093 31.3904 -1.7018 0.8780
4.4727 32.1620 -1.7018 0.8780
0.5711 32.4665 -1.7018 0.8780
-3.3388 32.2994 -1.7018 0.8780
-7.2003 31.6632 -1.7018 0.8780
-10.9571 30.5671 -1.7018 0.8780
-14.5547 29.0269 -1.7018 0.8780
-16.3364 24.6445 -1.5496 0.8883
-19.1825 22.5003 -1.5496 0.8883
-21.7469 20.0263 -1.5493 0.8883
-21.7541 15.6503 -1.4045 0.8982
-16.8823 9.2897 -1.0099 0.9257
-21.7732 8.7585 -1.2299 0.9103
-28.5594 7.6544 -1.5496 0.8883
-29.2729 4.1631 -1.5496 0.8883
-32.4646 0.6714 -1.7018 0.8780
-32.3096 -3.2391 -1.7018 0.8780
-31.6853 -7.1024 -1.7018 0.8780
-30.6007 -10.8626 -1.7018 0.8780
-29.0717 -14.4650 -1.7018 0.8780
-26.0690 -17.1650 -1.6358 0.8825
-22.5594 -19.1130 -1.5496 0.8883
-6.4178 -6.9262 -0.4949 0.9629
-5.3293 -7.3598 -0.4762 0.9643
-15.5198 -27.9991 -1.6777 0.8797
-12.2113 -30.0880 -1.7018 0.8780
-8.5031 -31.3385 -1.7018 0.8780
-3.5358 -24.3231 -1.2881 0.9062
-0.7716 -32.4624 -1.7018 0.8780
3.1393 -32.3195 -1.7018 0.8780
3.7113 -16.7998 -0.9017 0.9334
9.8050 -27.8943 -1.5496 0.8883
13.0895 -26.5122 -1.5496 0.8883
16.1840 -24.7450 -1.5496 0.8883
17.6045 -20.9095 -1.4325 0.8963
21.6259 -20.1631 -1.5496 0.8883
23.9598 -17.4627 -1.5538 0.8880
21.3252 -11.9067 -1.2800 0.9068
30.0501 -12.3041 -1.7018 0.8780
31.3121 -8.5998 -1.7018 0.8780
32.1192 -4.7705 -1.7018 0.8780
32.4599 -0.8718 -1.7018 0.8780
29.4376 2.7676 -1.5496 0.8883
19.2307 4.1861 -1.0314 0.9242
15.6783 5.4567 -0.8700 0.9357
13.8112 6.7658 -0.8060 0.9403
13.1645 8.5520 -0.8227 0.9391
12.7007 10.6264 -0.8679 0.9358
12.5151 13.3402 -0.9586 0.9294
6.7922 9.2590 -0.6018 0.9550
5.9781 10.6296 -0.6391 0.9523
11.2882 27.3278 -1.5496 0.8883
8.6755 31.2098 -1.6976 0.8783
4.8696 32.1043 -1.7018 0.8780
0.9721 32.4570 -1.7018 0.8780
-2.9396 32.3382 -1.7018 0.8780
-6.8086 31.7497 -1.7018 0.8780
-10.5786 30.7001 -1.7018 0.8780
-3.6114 7.4299 -0.4329 0.9675
-16.0308 24.8444 -1.5496 0.8883
-18.9031 22.7355 -1.5496 0.8883
-15.9060 15.0148 -1.1463 0.9161
-21.7529 16.0609 -1.4171 0.8974
-16.5790 9.3915 -0.9986 0.9265
-21.7723 9.0722 -1.2361 0.9098
-28.4246 7.9959 -1.5475 0.8885
-29.2192 4.5244 -1.5496 0.8883
-32.4539 1.0723 -1.7018 0.8780
-32.3472 -2.8398 -1.7018 0.8780
-31.7706 -6.7105 -1.7018 0.8780
-30.7326 -10.4838 -1.7018 0.8780
-29.2482 -14.1048 -1.7018 0.8780
-26.7687 -17.1555 -1.6663 0.8804
-22.7938 -18.8328 -1.5496 0.8883
-6.5689 -6.9159 -0.4999 0.9625
-5.3952 -7.2602 -0.4740 0.9644
-15.5264 -27.2128 -1.6420 0.8821
-12.5820 -29.9348 -1.7018 0.8780
-8.8895 -31.2311 -1.7018 0.8780
-3.5854 -22.6915 -1.2040 0.9121
-1.1725 -32.4504 -1.7018 0.8780
2.7398 -32.3558 -1.7018 0.8780
3.4783 -16.7230 -0.8952 0.9339
9.4597 -28.0133 -1.5496 0.8883
12.7610 -26.6719 -1.5496 0.8883
15.8770 -24.9430 -1.5496 0.8883
18.7623 -22.8519 -1.5496 0.8883
21.3752 -20.4288 -1.5496 0.8883
23.6775 -17.7089 -1.5496 0.8883
20.7229 -11.9086 -1.2526 0.9087
29.8959 -12.6744 -1.7018 0.8780
31.2035 -8.9859 -1.7018 0.8780
32.0579 -5.1669 -1.7018 0.8780
32.4466 -1.2727 -1.7018 0.8780
29.4695 2.4038 -1.5496 0.8883
20.4072 4.1788 -1.0917 0.9199
16.3567 5.4672 -0.9038 0.9333
13.9690 6.6305 -0.8104 0.9399
13.1481 8.3122 -0.8152 0.9396
12.5613 10.2486 -0.8496 0.9371
12.4547 12.9514 -0.9417 0.9306
6.9965 9.2946 -0.6097 0.9545
5.9851 10.3411 -0.6262 0.9533
11.6249 27.1863 -1.5496 0.8883
8.8878 30.5081 -1.6653 0.8805
5.2658 32.0417 -1.7018 0.8780
1.3729 32.4425 -1.7018 0.8780
-2.5399 32.3721 -1.7018 0.8780
-6.4159 31.8314 -1.7018 0.8780
-10.1986 30.8284 -1.7018 0.8780
-3.5367 7.5108 -0.4351 0.9673
-15.7226 25.0406 -1.5496 0.8883
-18.6208 22.9673 -1.5496 0.8883
-21.2486 20.5604 -1.5496 0.8883
-21.7517 16.4790 -1.4302 0.8965
-21.7623 12.6853 -1.3201 0.9040
-20.8931 9.0103 -1.1924 0.9129
-27.1219 7.9922 -1.4818 0.8929
-29.1611 4.8849 -1.5496 0.8883
-32.3936 1.4711 -1.6994 0.8782
-22.4091 -1.6886 -1.1777 0.9139
-31.8511 -6.3175 -1.7018 0.8780
-30.8598 -10.1034 -1.7018 0.8780
-29.4202 -13.7424 -1.7018 0.8780
-27.4397 -17.1110 -1.6947 0.8785
-23.0247 -18.5498 -1.5496 0.8883
-6.7309 -6.9133 -0.5057 0.9621
-5.4534 -7.1522 -0.4714 0.9646
-15.5327 -26.4590 -1.6079 0.8844
-12.9509 -29.7771 -1.7018 0.8780
-9.2746 -31.1189 -1.7018 0.8780
-4.9994 -29.2892 -1.5572 0.8878
-1.5682 -32.3283 -1.6962 0.8784
2.3399 -32.3871 -1.7018 0.8780
3.2578 -16.6949 -0.8914 0.9341
9.1129 -28.1280 -1.5496 0.8883
12.4305 -26.8275 -1.5496 0.8883
15.5677 -25.1372 -1.5496 0.8883
18.4786 -23.0819 -1.5496 0.8883
21.1212 -20.6912 -1.5496 0.8883
23.4570 -18.0000 -1.5496 0.8883
20.0921 -11.8786 -1.2232 0.9107
29.7370 -13.0428 -1.7018 0.8780
31.0901 -9.3706 -1.7018 0.8780
31.9916 -5.5625 -1.7018 0.8780
32.4284 -1.6735 -1.7018 0.8780
29.4970 2.0396 -1.5496 0.8883
21.7299 4.1707 -1.1596 0.9152
16.6776 5.3463 -0.9179 0.9323
14.0655 6.4646 -0.8113 0.9399
13.3357 8.2020 -0.8205 0.9392
12.6830 10.0895 -0.8494 0.9371
12.6776 12.8613 -0.9464 0.9302
7.1844 9.3027 -0.6160 0.9540
5.9966 10.0718 -0.6143 0.9541
11.9598 27.0406 -1.5496 0.8883
8.8999 29.2016 -1.5999 0.8849
5.6613 31.9742 -1.7018 0.8780
1.7736 32.4231 -1.7018 0.8780
-2.1398 32.4010 -1.7018 0.8780
-6.0222 31.9082 -1.7018 0.8780
-9.8170 30.9520 -1.7018 0.8780
-13.4692 29.5463 -1.7018 0.8780
-15.5411 25.4442 -1.5625 0.8874
-18.3357 23.1956 -1.5496 0.8883
-20.9929 20.8213 -1.5496 0.8883
-21.7505 16.9050 -1.4437 0.8955
-21.7135 13.0189 -1.3268 0.9036
-21.7706 9.7094 -1.2493 0.9089
-25.9250 7.9889 -1.4217 0.8970
-29.0985 5.2448 -1.5496 0.8883
-30.8938 1.7857 -1.6218 0.8834
-22.1695 -1.3954 -1.1642 0.9149
-31.9267 -5.9236 -1.7018 0.8780
-30.9822 -9.7214 -1.7018 0.8780
-29.5877 -13.3779 -1.7018 0.8780
-27.7292 -16.8194 -1.6997 0.8782
-23.2521 -18.2639 -1.5496 0.8883
-6.9022 -6.9162 -0.5121 0.9616
-5.5279 -7.0673 -0.4702 0.9647
-15.5387 -25.7356 -1.5755 0.8866
-13.3178 -29.6149 -1.7018 0.8780
-9.6582 -31.0020 -1.7018 0.8780
-4.5364 -24.7308 -1.3177 0.9042
-1.8061 -29.6579 -1.5572 0.8878
1.9397 -32.4136 -1.7018 0.8780
3.0428 -16.6872 -0.8890 0.9343
8.9047 -28.6895 -1.5743 0.8866
12.0983 -26.9790 -1.5496 0.8883
15.2560 -25.3276 -1.5496 0.8883
18.1921 -23.3084 -1.5496 0.8883
20.8640 -20.9506 -1.5496 0.8883
23.0801 -18.1683 -1.5394 0.8890
19.6766 -11.9635 -1.2069 0.9119
29.5736 -13.4091 -1.7018 0.8780
30.9720 -9.7540 -1.7018 0.8780
31.9204 -5.9572 -1.7018 0.8780
32.4053 -2.0739 -1.7018 0.8780
29.5199 1.6750 -1.5496 0.8883
23.2286 4.1615 -1.2367 0.9098
16.5642 5.0853 -0.9081 0.9329
14.2568 6.3404 -0.8177 0.9394
13.5224 8.0883 -0.8258 0.9388
12.5117 9.7033 -0.8298 0.9385
12.5140 12.3855 -0.9227 0.9319
7.4035 9.3456 -0.6248 0.9534
6.0152 9.8249 -0.6037 0.9549
12.1688 26.6192 -1.5339 0.8894
8.9687 28.1744 -1.5496 0.8883
6.0558 31.9019 -1.7018 0.8780
2.1740 32.3987 -1.7018 0.8780
-1.7395 32.4249 -1.7018 0.8780
-5.6276 31.9802 -1.7018 0.8780
-9.4340 31.0709 -1.7018 0.8780
-13.1033 29.7104 -1.7018 0.8780
-15.5352 26.1555 -1.5943 0.8853
-18.0477 23.4203 -1.5496 0.8883
-20.7342 21.0790 -1.5496 0.8883
-21.7493 17.3393 -1.4577 0.8946
-21.7603 13.4151 -1.3397 0.9027
-21.7697 10.0332 -1.2562 0.9085
-24.8213 7.9858 -1.3665 0.9008
-29.0315 5.6039 -1.5496 0.8883
-29.4948 2.0706 -1.5496 0.8883
-22.0945 -1.1169 -1.1594 0.9152
-31.9974 -5.5288 -1.7018 0.8780
-31.0999 -9.3379 -1.7018 0.8780
-29.7507 -13.0114 -1.7018 0.8780
-27.9694 -16.4959 -1.7018 0.8780
-23.4759 -17.9754 -1.5496 0.8883
-7.0698 -6.9113 -0.5181 0.9612
-5.6394 -7.0291 -0.4723 0.9645
-15.5941 -25.1208 -1.5496 0.8883
-13.6825 -29.4481 -1.7018 0.8780
-10.0406 -30.8802 -1.7018 0.8780
-6.2526 -31.8639 -1.7018 0.8780
-2.0520 -27.9926 -1.4710 0.8937
1.5391 -32.4351 -1.7018 0.8780
2.8339 -16.7086 -0.8882 0.9344
8.8930 -29.9538 -1.6375 0.8824
11.7641 -27.1263 -1.5496 0.8883
14.7782 -25.2344 -1.5326 0.8895
17.9028 -23.5313 -1.5496 0.8883
20.6036 -21.2067 -1.5496 0.8883
23.0051 -18.5741 -1.5496 0.8883
19.5149 -12.1979 -1.2061 0.9119
29.4057 -13.7733 -1.7018 0.8780
30.8491 -10.1358 -1.7018 0.8780
31.8444 -6.3511 -1.7018 0.8780
32.3772 -2.4740 -1.7018 0.8780
32.0675 1.4224 -1.6822 0.8793
24.9409 4.1509 -1.3251 0.9037
16.8429 4.9440 -0.9199 0.9321
14.4590 6.2175 -0.8249 0.9389
13.4343 7.8119 -0.8144 0.9397
12.7009 9.6011 -0.8344 0.9382
12.5346 12.1030 -0.9132 0.9326
12.2150 15.0338 -1.0152 0.9253
6.0254 9.5739 -0.5928 0.9557
12.1631 25.7605 -1.4930 0.8922
9.3160 28.0614 -1.5496 0.8883
6.4494 31.8246 -1.7018 0.8780
2.5740 32.3694 -1.7018 0.8780
-1.3387 32.4440 -1.7018 0.8780
-5.2321 32.0472 -1.7018 0.8780
-9.0494 31.1851 -1.7018 0.8780
-12.7353 29.8700 -1.7018 0.8780
-15.5291 26.8963 -1.6276 0.8830
-17.7570 23.6415 -1.5496 0.8883
-20.4723 21.3335 -1.5496 0.8883
-21.7481 17.7821 -1.4723 0.8936
-21.7305 13.7700 -1.3482 0.9021
-21.7687 10.3607 -1.2635 0.9079
-23.8001 7.9830 -1.3156 0.9043
-28.9601 5.9621 -1.5496 0.8883
-29.4670 2.4347 -1.5496 0.8883
-22.0670 -0.8423 -1.1573 0.9153
-32.0633 -5.1331 -1.7018 0.8780
-31.2129 -8.9531 -1.7018 0.8780
-29.9092 -12.6429 -1.7018 0.8780
-28.1710 -16.1492 -1.7018 0.8780
-23.6961 -17.6841 -1.5496 0.8883
-7.2421 -6.9069 -0.5245 0.9607
-5.7609 -7.0015 -0.4752 0.9643
-15.9033 -24.9263 -1.5496 0.8883
-14.0453 -29.2768 -1.7018 0.8780
-10.4213 -30.7539 -1.7018 0.8780
-6.6458 -31.7842 -1.7018 0.8780
-2.1181 -24.7045 -1.2995 0.9055
1.1383 -32.4516 -1.7018 0.8780
2.6313 -16.7680 -0.8895 0.9343
8.8222 -31.1193 -1.6952 0.8785
9.6425 -23.0091 -1.3075 0.9049
14.3619 -25.2333 -1.5216 0.8902
17.6107 -23.7506 -1.5496 0.8883
18.7887 -19.8228 -1.4314 0.8964
22.7739 -18.8568 -1.5496 0.8883
19.4298 -12.4811 -1.2103 0.9116
29.2334 -14.1355 -1.7018 0.8780
30.7216 -10.5161 -1.7018 0.8780
31.7635 -6.7439 -1.7018 0.8780
32.3441 -2.8738 -1.7018 0.8780
32.4327 1.0374 -1.7006 0.8781
26.9169 4.1388 -1.4272 0.8967
17.4639 4.8928 -0.9505 0.9299
14.6355 6.0804 -0.8306 0.9385
13.5978 7.6838 -0.8185 0.9394
12.7269 9.3760 -0.8284 0.9386
12.6057 11.8744 -0.9076 0.9330
12.3998 14.8817 -1.0152 0.9253
6.1129 9.4520 -0.5899 0.9559
6.0503 12.4144 -0.7238 0.9462
9.6619 27.9442 -1.5496 0.8883
6.8420 31.7425 -1.7018 0.8780
2.9737 32.3351 -1.7018 0.8780
-0.9378 32.4580 -1.7018 0.8780
-4.8359 32.1094 -1.7018 0.8780
-8.6635 31.2945 -1.7018 0.8780
-12.3653 30.0250 -1.7018 0.8780
-15.5226 27.6688 -1.6627 0.8807
-17.4637 23.8590 -1.5496 0.8883
-20.2071 21.5848 -1.5496 0.8883
-21.7518 18.2380 -1.4876 0.8925
-21.4236 13.9494 -1.3398 0.9027
-21.7678 10.6921 -1.2710 0.9074
-22.8520 7.9804 -1.2685 0.9076
-28.8842 6.3194 -1.5496 0.8883
-29.4347 2.7987 -1.5496 0.8883
-22.0826 -0.5699 -1.1577 0.9153
-32.1242 -4.7367 -1.7018 0.8780
-31.3211 -8.5668 -1.7018 0.8780
-30.0631 -12.2725 -1.7018 0.8780
-28.3683 -15.8000 -1.7018 0.8780
-23.9128 -17.3900 -1.5496 0.8883
-7.4260 -6.9091 -0.5316 0.9602
-5.8807 -6.9698 -0.4779 0.9641
-5.2770 -8.0499 -0.5044 0.9622
-14.4058 -29.1011 -1.7018 0.8780
-10.8004 -30.6228 -1.7018 0.8780
-7.0379 -31.6997 -1.7018 0.8780
-2.5368 -25.8347 -1.3605 0.9012
0.7374 -32.4632 -1.7018 0.8780
2.4304 -16.8432 -0.8919 0.9341
8.4671 -31.3367 -1.7012 0.8781
9.4530 -23.3622 -1.3208 0.9040
13.9770 -25.2784 -1.5138 0.8907
17.3160 -23.9664 -1.5496 0.8883
18.3421 -19.8368 -1.4159 0.8974
22.5393 -19.1367 -1.5496 0.8883
19.3981 -12.8020 -1.2180 0.9111
29.0565 -14.4957 -1.7018 0.8780
30.5893 -10.8948 -1.7018 0.8780
31.6778 -7.1358 -1.7018 0.8780
32.3062 -3.2731 -1.7018 0.8780
32.4653 0.6371 -1.7018 0.8780
29.2234 4.1246 -1.5467 0.8885
17.6662 4.7149 -0.9583 0.9294
14.9015 5.9761 -0.8414 0.9377
13.6341 7.4837 -0.8151 0.9396
12.7939 9.1837 -0.8254 0.9389
12.4170 11.4105 -0.8838 0.9347
12.5528 14.6925 -1.0128 0.9255
6.2493 9.4058 -0.5918 0.9558
5.9430 11.8213 -0.6934 0.9484
10.0064 27.8227 -1.5496 0.8883
7.2336 31.6556 -1.7018 0.8780
3.3729 32.2959 -1.7018 0.8780
-0.5368 32.4671 -1.7018 0.8780
-4.4389 32.1667 -1.7018 0.8780
-8.2763 31.3991 -1.7018 0.8780
-11.9935 30.1755 -1.7018 0.8780
-15.4736 28.3981 -1.6949 0.8785
-17.1676 24.0729 -1.5496 0.8883
-19.9389 21.8328 -1.5496 0.8883
-21.7506 18.6994 -1.5032 0.8915
-21.4226 14.3286 -1.3507 0.9019
-21.7669 11.0274 -1.2788 0.9069
-21.9692 7.9779 -1.2249 0.9106
-28.8039 6.6757 -1.5496 0.8883
-26.3767 2.8371 -1.3903 0.8992
-22.1203 -0.2975 -1.1594 0.9152
-32.1803 -4.3395 -1.7018 0.8780
-31.4245 -8.1793 -1.7018 0.8780
-30.2124 -11.9002 -1.7018 0.8780
-28.5614 -15.4483 -1.7018 0.8780
-24.2617 -17.1895 -1.5583 0.8877
-7.6226 -6.9183 -0.5395 0.9596
-6.0208 -6.9596 -0.4823 0.9638
-5.2400 -7.7822 -0.4917 0.9631
-14.7642 -28.9209 -1.7018 0.8780
-11.1778 -30.4870 -1.7018 0.8780
-7.4290 -31.6103 -1.7018 0.8780
-2.6934 -24.3348 -1.2831 0.9066
0.3364 -32.4698 -1.7018 0.8780
2.2516 -17.0960 -0.9037 0.9333
8.0821 -31.4497 -1.7018 0.8780
10.7508 -27.5436 -1.5496 0.8883
13.8259 -25.7512 -1.5318 0.8895
17.0187 -24.1784 -1.5496 0.8883
17.8926 -19.8367 -1.4000 0.8985
22.3012 -19.4137 -1.5496 0.8883
19.4279 -13.1690 -1.2300 0.9103
23.0922 -11.8787 -1.3609 0.9012
30.4524 -11.2718 -1.7018 0.8780
31.5872 -7.5265 -1.7018 0.8780
12.4806 -1.4204 -0.6583 0.9509
32.4707 0.2360 -1.7018 0.8780
17.3064 2.2250 -0.9145 0.9325
17.8286 4.5230 -0.9640 0.9290
15.2347 5.8923 -0.8561 0.9367
13.8781 7.3960 -0.8242 0.9390
12.9801 9.0765 -0.8301 0.9385
12.5511 11.2509 -0.8834 0.9347
12.5674 14.3468 -0.9996 0.9264
6.3873 9.3606 -0.5939 0.9556
5.9472 11.4741 -0.6773 0.9496
10.3493 27.6970 -1.5496 0.8883
7.6241 31.5638 -1.7018 0.8780
3.7716 32.2518 -1.7018 0.8780
-0.1357 32.4713 -1.7018 0.8780
-4.0410 32.2191 -1.7018 0.8780
-7.8878 31.4990 -1.7018 0.8780
-11.6198 30.3213 -1.7018 0.8780
-15.1679 28.6744 -1.7001 0.8782
-16.8690 24.2831 -1.5496 0.8883
-19.6677 22.0774 -1.5496 0.8883
-21.7492 19.1705 -1.5194 0.8904
-21.7560 14.9439 -1.3833 0.8997
-21.7660 11.3670 -1.2869 0.9063
-21.7747 8.2131 -1.2196 0.9110
-28.7193 7.0309 -1.5496 0.8883
-29.3565 3.5249 -1.5496 0.8883
-22.2578 -0.0244 -1.1665 0.9147
-32.2314 -3.9416 -1.7018 0.8780
-31.5232 -7.7905 -1.7018 0.8780
-30.3571 -11.5261 -1.7018 0.8780
-28.7500 -15.0944 -1.7018 0.8780
-24.8960 -17.1809 -1.5853 0.8859
-7.8209 -6.9241 -0.5474 0.9590
-6.1575 -6.9424 -0.4863 0.9635
-5.2583 -7.6048 -0.4845 0.9636
-15.1134 -28.7231 -1.7010 0.8781
-11.5535 -30.3466 -1.7018 0.8780
-7.8189 -31.5161 -1.7018 0.8780
-2.9976 -24.3306 -1.2848 0.9065
-0.0648 -32.4715 -1.7018 0.8780
2.1876 -18.3589 -0.9690 0.9286
7.6930 -31.5471 -1.7018 0.8780
10.4098 -27.6743 -1.5496 0.8883
13.6634 -26.2210 -1.5496 0.8883
16.7187 -24.3868 -1.5496 0.8883
17.6048 -20.0091 -1.3967 0.8987
22.0596 -19.6877 -1.5496 0.8883
19.6402 -13.6701 -1.2541 0.9086
22.4254 -11.8883 -1.3302 0.9033
30.3108 -11.6474 -1.7018 0.8780
31.4918 -7.9163 -1.7018 0.8780
32.2155 -4.0702 -1.7018 0.8780
32.4711 -0.1652 -1.7018 0.8780
29.3704 3.4077 -1.5496 0.8883
18.8121 4.5259 -1.0140 0.9254
15.2439 5.6804 -0.8526 0.9369
13.8441 7.1597 -0.8168 0.9395
12.9027 8.7871 -0.8181 0.9394
12.3942 10.8371 -0.8628 0.9362
12.6176 14.0500 -0.9897 0.9272
6.5375 9.3310 -0.5971 0.9554
5.9554 11.1507 -0.6625 0.9506
18.2614 -6.6983 -1.7018 0.9249
18.9347 -4.4530 -1.7018 0.9249
12.3030 -1.3636 -1.0830 0.9515
19.4502 0.1985 -1.7018 0.9249
17.2351 2.2673 -1.5209 0.9326
17.1548 4.4058 -1.5496 0.9314
14.7203 5.7431 -1.3824 0.9385
13.5283 7.2607 -1.3433 0.9402
12.7550 8.9751 -1.3645 0.9393
12.0656 10.8798 -1.4214 0.9368
7.1050 8.1592 -0.9466 0.9575
5.8753 8.6650 -0.9159 0.9588
5.8469 11.3622 -1.1180 0.9500
6.7549 18.2407 -1.7018 0.9249
4.5114 18.9208 -1.7018 0.9249
2.2025 19.3261 -1.7018 0.9249
-0.1385 19.4507 -1.7018 0.9249
-2.2669 17.6537 -1.5572 0.9310
-4.3742 17.2528 -1.5572 0.9310
-7.0139 18.1426 -1.7018 0.9249
-9.1455 17.1671 -1.7018 0.9249
-11.1443 15.9422 -1.7018 0.9249
-12.9812 14.4858 -1.7018 0.9249
-14.6296 12.8189 -1.7018 0.9249
-15.5479 10.6126 -1.6469 0.9272
-16.0124 8.3025 -1.5780 0.9301
-16.9355 6.3310 -1.5818 0.9300
-18.4410 4.4573 -1.6598 0.9267
-19.3192 2.2622 -1.7018 0.9249
-19.4511 -0.0784 -1.7018 0.9249
-19.3004 -2.4178 -1.7018 0.9249
-18.8693 -4.7221 -1.7018 0.9249
-18.1642 -6.9578 -1.7018 0.9249
-17.1953 -9.0924 -1.7018 0.9249
-15.9766 -11.0950 -1.7018 0.9249
-7.6098 -6.7771 -0.8915 0.9599
-5.9707 -6.7717 -0.7899 0.9644
-4.9597 -7.2182 -0.7662 0.9654
-9.0068 -17.2403 -1.7018 0.9249
-6.8674 -18.1986 -1.7018 0.9249
-4.6282 -18.8926 -1.7018 0.9249
-2.3218 -19.3122 -1.7018 0.9249
0.0183 -19.4512 -1.7018 0.9249
2.1639 -17.7172 -1.5616 0.9308
4.6638 -18.8838 -1.7018 0.9249
6.9017 -18.1856 -1.7018 0.9249
9.0393 -17.2233 -1.7018 0.9249
11.0456 -16.0108 -1.7018 0.9249
12.8915 -14.5657 -1.7018 0.9249
14.5501 -12.9090 -1.7018 0.9249
15.9974 -11.0649 -1.7018 0.9249
17.2124 -9.0600 -1.7018 0.9249
18.1773 -6.9235 -1.7018 0.9249
18.8782 -4.6865 -1.7018 0.9249
19.3049 -2.3814 -1.7018 0.9249
19.4512 -0.0417 -1.7018 0.9249
17.2241 2.0497 -1.5176 0.9327
17.2079 4.1936 -1.5496 0.9314
14.9951 5.6379 -1.4016 0.9377
13.6065 7.0876 -1.3422 0.9403
12.8355 8.7967 -1.3614 0.9394
12.0639 10.6110 -1.4056 0.9375
7.2957 8.1722 -0.9584 0.9570
5.9158 8.4968 -0.9058 0.9593
5.8561 11.0426 -1.0936 0.9511
6.9797 18.1558 -1.7018 0.9249
4.7448 18.8636 -1.7018 0.9249
2.4410 19.2974 -1.7018 0.9249
0.1018 19.4509 -1.7018 0.9249
-2.0487 17.6804 -1.5572 0.9310
-4.1608 17.3055 -1.5572 0.9310
-6.7892 18.2279 -1.7018 0.9249
-8.9327 17.2788 -1.7018 0.9249
-10.9465 16.0787 -1.7018 0.9249
-12.8013 14.6450 -1.7018 0.9249
-14.4701 12.9986 -1.7018 0.9249
-15.5326 10.8858 -1.6594 0.9267
-15.9437 8.5184 -1.5815 0.9300
-16.8186 6.5253 -1.5783 0.9301
-18.2472 4.6497 -1.6474 0.9272
-19.2898 2.5006 -1.7018 0.9249
-19.4505 0.1619 -1.7018 0.9249
-19.3288 -2.1792 -1.7018 0.9249
-18.9262 -4.4887 -1.7018 0.9249
-18.2488 -6.7329 -1.7018 0.9249
-17.3063 -8.8793 -1.7018 0.9249
-16.1124 -10.8968 -1.7018 0.9249
-7.7981 -6.7740 -0.9037 0.9594
-6.1264 -6.7777 -0.7993 0.9640
-5.0033 -7.0923 -0.7594 0.9657
-9.2191 -17.1277 -1.7018 0.9249
-7.0917 -18.1124 -1.7018 0.9249
-4.8612 -18.8340 -1.7018 0.9249
-2.5602 -19.2820 -1.7018 0.9249
-0.2219 -19.4500 -1.7018 0.9249
2.1195 -19.3354 -1.7018 0.9249
4.0525 -17.3255 -1.5567 0.9310
6.6765 -18.2695 -1.7018 0.9249
8.8258 -17.3336 -1.7018 0.9249
10.8470 -16.1460 -1.7018 0.9249
12.7106 -14.7238 -1.7018 0.9249
14.3896 -13.0878 -1.7018 0.9249
15.8595 -11.2617 -1.7018 0.9249
17.0992 -9.2719 -1.7018 0.9249
18.0904 -7.1476 -1.7018 0.9249
18.8189 -4.9194 -1.7018 0.9249
19.2740 -2.6197 -1.7018 0.9249
19.4492 -0.2820 -1.7018 0.9249
17.6120 1.8756 -1.5496 0.9314
17.2584 3.9807 -1.5496 0.9314
15.2776 5.5297 -1.4215 0.9368
13.6845 6.9147 -1.3414 0.9403
12.9156 8.6191 -1.3585 0.9396
12.0621 10.3480 -1.3904 0.9382
7.5231 8.2203 -0.9749 0.9562
5.9954 8.3882 -0.9021 0.9594
5.8529 10.7148 -1.0682 0.9522
7.2034 18.0682 -1.7018 0.9249
4.9775 18.8036 -1.7018 0.9249
2.6792 19.2658 -1.7018 0.9249
0.3421 19.4482 -1.7018 0.9249
-1.8301 17.7043 -1.5572 0.9310
-3.9467 17.3556 -1.5572 0.9310
-6.5635 18.3104 -1.7018 0.9249
-8.7186 17.3878 -1.7018 0.9249
-10.7471 16.2127 -1.7018 0.9249
-12.6194 14.8020 -1.7018 0.9249
-14.3085 13.1764 -1.7018 0.9249
-15.5223 11.1670 -1.6729 0.9261
-15.8776 8.7369 -1.5855 0.9298
-16.7051 6.7198 -1.5753 0.9303
-18.0639 4.8414 -1.6362 0.9277
-19.2574 2.7387 -1.7018 0.9249
-19.4471 0.4022 -1.7018 0.9249
-19.3542 -1.9403 -1.7018 0.9249
-18.9802 -4.2545 -1.7018 0.9249
-18.3306 -6.5070 -1.7018 0.9249
-17.4146 -8.6649 -1.7018 0.9249
-16.2458 -10.6969 -1.7018 0.9249
-7.9942 -6.7729 -0.9167 0.9588
-6.2829 -6.7805 -0.8087 0.9636
-5.0476 -6.9708 -0.7530 0.9660
-9.4300 -17.0125 -1.7018 0.9249
-7.3148 -18.0234 -1.7018 0.9249
-5.0935 -18.7725 -1.7018 0.9249
-2.7982 -19.2489 -1.7018 0.9249
-0.4622 -19.4457 -1.7018 0.9249
1.8805 -19.3601 -1.7018 0.9249
3.8288 -17.3315 -1.5529 0.9312
6.4503 -18.3506 -1.7018 0.9249
8.6111 -17.4413 -1.7018 0.9249
10.6467 -16.2787 -1.7018 0.9249
12.5277 -14.8797 -1.7018 0.9249
14.2268 -13.2645 -1.7018 0.9249
15.7192 -11.4567 -1.7018 0.9249
16.9833 -9.4825 -1.7018 0.9249
18.0007 -7.3705 -1.7018 0.9249
18.7567 -5.1515 -1.7018 0.9249
19.2402 -2.8576 -1.7018 0.9249
19.4442 -0.5222 -1.7018 0.9249
17.6338 1.6579 -1.5496 0.9314
17.3063 3.7672 -1.5496 0.9314
15.5683 5.4184 -1.4422 0.9360
13.7624 6.7419 -1.3408 0.9403
12.9954 8.4422 -1.3558 0.9397
12.1994 10.2069 -1.3916 0.9381
12.0787 12.8750 -1.5445 0.9316
6.0995 8.3147 -0.9022 0.9594
5.8558 10.4122 -1.0451 0.9532
7.4260 17.9779 -1.7018 0.9249
5.2094 18.7407 -1.7018 0.9249
2.9170 19.2312 -1.7018 0.9249
0.5823 19.4425 -1.7018 0.9249
-1.6113 17.7256 -1.5572 0.9310
-3.7320 17.4030 -1.5572 0.9310
-6.3369 18.3901 -1.7018 0.9249
-3.6113 7.4298 -0.7227 0.9674
-10.5460 16.3442 -1.7018 0.9249
-12.4356 14.9568 -1.7018 0.9249
-14.1446 13.3521 -1.7018 0.9249
-15.5180 11.4574 -1.6876 0.9255
-15.8194 8.9612 -1.5907 0.9296
-16.6028 6.9181 -1.5736 0.9303
-17.8907 5.0327 -1.6260 0.9281
-19.2221 2.9764 -1.7018 0.9249
-19.4406 0.6423 -1.7018 0.9249
-19.3767 -1.7011 -1.7018 0.9249
-19.0313 -4.0197 -1.7018 0.9249
-18.4095 -6.2800 -1.7018 0.9249
-17.5204 -8.4491 -1.7018 0.9249
-16.3767 -10.4955 -1.7018 0.9249
-8.1955 -6.7714 -0.9301 0.9582
-6.4395 -6.7796 -0.8181 0.9632
-5.1318 -6.9057 -0.7527 0.9660
-9.6394 -16.8947 -1.7018 0.9249
-7.5369 -17.9317 -1.7018 0.9249
-5.3250 -18.7081 -1.7018 0.9249
-3.0357 -19.2129 -1.7018 0.9249
-0.7024 -19.4385 -1.7018 0.9249
1.6412 -19.3819 -1.7018 0.9249
3.9610 -19.0436 -1.7018 0.9249
6.2231 -18.4288 -1.7018 0.9249
8.3949 -17.5464 -1.7018 0.9249
10.4448 -16.4090 -1.7018 0.9249
12.3430 -15.0333 -1.7018 0.9249
14.0619 -13.4393 -1.7018 0.9249
15.5765 -11.6500 -1.7018 0.9249
16.8649 -9.6915 -1.7018 0.9249
17.9083 -7.5923 -1.7018 0.9249
18.6916 -5.3828 -1.7018 0.9249
19.2034 -3.0951 -1.7018 0.9249
19.4363 -0.7624 -1.7018 0.9249
18.5006 1.5091 -1.6240 0.9282
17.3515 3.5531 -1.5496 0.9314
15.8677 5.3038 -1.4637 0.9350
13.8402 6.5693 -1.3403 0.9403
13.0749 8.2660 -1.3533 0.9398
12.2830 10.0216 -1.3869 0.9383
12.0766 12.5582 -1.5243 0.9324
6.2310 8.2777 -0.9065 0.9593
5.8681 10.1388 -1.0249 0.9541
7.6476 17.8848 -1.7018 0.9249
5.4405 18.6749 -1.7018 0.9249
3.1543 19.1937 -1.7018 0.9249
0.8224 19.4338 -1.7018 0.9249
-1.5215 19.3916 -1.7018 0.9249
-3.5167 17.4478 -1.5572 0.9310
-6.1092 18.4669 -1.7018 0.9249
-3.5366 7.5107 -0.7263 0.9672
-10.3433 16.4732 -1.7018 0.9249
-12.2499 15.1093 -1.7018 0.9249
-13.9786 13.5259 -1.7018 0.9249
-15.4458 11.7017 -1.6953 0.9251
-15.7612 9.1873 -1.5961 0.9294
-16.5008 7.1161 -1.5722 0.9304
-17.7281 5.2241 -1.6169 0.9285
-19.1839 3.2136 -1.7018 0.9249
-19.4312 0.8824 -1.7018 0.9249
-19.3962 -1.4616 -1.7018 0.9249
-19.0795 -3.7843 -1.7018 0.9249
-18.4857 -6.0521 -1.7018 0.9249
-17.6234 -8.2320 -1.7018 0.9249
-16.5051 -10.2924 -1.7018 0.9249
-8.3959 -6.7642 -0.9433 0.9576
-6.5963 -6.7751 -0.8273 0.9627
-5.2425 -6.8756 -0.7565 0.9659
-9.8473 -16.7744 -1.7018 0.9249
-7.7579 -17.8372 -1.7018 0.9249
-5.5557 -18.6409 -1.7018 0.9249
-3.2728 -19.1739 -1.7018 0.9249
-0.9424 -19.4284 -1.7018 0.9249
1.4017 -19.4007 -1.7018 0.9249
3.7254 -19.0911 -1.7018 0.9249
5.9950 -18.5043 -1.7018 0.9249
8.1775 -17.6487 -1.7018 0.9249
10.2414 -16.5368 -1.7018 0.9249
12.1563 -15.1846 -1.7018 0.9249
13.8948 -13.6119 -1.7018 0.9249
15.4314 -11.8415 -1.7018 0.9249
16.7439 -9.8991 -1.7018 0.9249
17.8131 -7.8129 -1.7018 0.9249
18.6237 -5.6132 -1.7018 0.9249
19.1637 -3.3320 -1.7018 0.9249
19.4254 -1.0024 -1.7018 0.9249
19.3477 1.3378 -1.6967 0.9251
17.3941 3.3385 -1.5496 0.9314
16.1763 5.1856 -1.4862 0.9341
13.9180 6.3968 -1.3401 0.9403
13.1541 8.0904 -1.3511 0.9399
12.3661 9.8374 -1.3825 0.9385
12.0746 12.2496 -1.5048 0.9333
6.3709 8.2494 -0.9119 0.9590
5.8753 9.8681 -1.0048 0.9549
7.8679 17.7889 -1.7018 0.9249
5.6707 18.6062 -1.7018 0.9249
3.3912 19.1533 -1.7018 0.9249
1.0625 19.4222 -1.7018 0.9249
-1.2818 19.4089 -1.7018 0.9249
-3.3010 17.4899 -1.5572 0.9310
-5.8806 18.5410 -1.7018 0.9249
-8.0684 17.6989 -1.7018 0.9249
-10.1390 16.5997 -1.7018 0.9249
-12.0623 15.2595 -1.7018 0.9249
-13.8104 13.6975 -1.7018 0.9249
-15.3194 11.9066 -1.6975 0.9251
-15.7139 9.4216 -1.6030 0.9291
-16.4038 7.3159 -1.5714 0.9304
-17.5709 5.4146 -1.6086 0.9288
-19.1213 3.4465 -1.6999 0.9250
-19.4188 1.1224 -1.7018 0.9249
-19.4128 -1.2219 -1.7018 0.9249
-19.1248 -3.5484 -1.7018 0.9249
-18.5591 -5.8233 -1.7018 0.9249
-17.7237 -8.0137 -1.7018 0.9249
-16.6310 -10.0877 -1.7018 0.9249
-8.5776 -6.7375 -0.9543 0.9571
-6.7636 -6.7774 -0.8377 0.9623
-5.3541 -6.8450 -0.7603 0.9657
-4.9769 -8.2429 -0.8424 0.9621
-7.9776 -17.7400 -1.7018 0.9249
-5.7855 -18.5709 -1.7018 0.9249
-3.5094 -19.1320 -1.7018 0.9249
-1.1823 -19.4153 -1.7018 0.9249
1.1619 -19.4165 -1.7018 0.9249
3.4893 -19.1357 -1.7018 0.9249
5.7660 -18.5770 -1.7018 0.9249
7.9590 -17.7484 -1.7018 0.9249
10.0363 -16.6620 -1.7018 0.9249
11.9678 -15.3336 -1.7018 0.9249
13.7256 -13.7825 -1.7018 0.9249
15.2839 -12.0312 -1.7018 0.9249
16.6203 -10.1052 -1.7018 0.9249
17.7153 -8.0323 -1.7018 0.9249
18.5529 -5.8429 -1.7018 0.9249
19.1211 -3.5685 -1.7018 0.9249
19.4115 -1.2423 -1.7018 0.9249
19.4084 1.1012 -1.7007 0.9249
17.4340 3.1234 -1.5496 0.9314
16.4944 5.0638 -1.5095 0.9331
13.9958 6.2244 -1.3401 0.9403
13.2331 7.9153 -1.3490 0.9400
12.4486 9.6544 -1.3783 0.9387
12.0726 11.9487 -1.4861 0.9341
6.5112 8.2192 -0.9174 0.9588
5.8813 9.6062 -0.9854 0.9558
8.0870 17.6904 -1.7018 0.9249
5.9001 18.5348 -1.7018 0.9249
3.6276 19.1100 -1.7018 0.9249
1.3023 19.4076 -1.7018 0.9249
-1.0420 19.4233 -1.7018 0.9249
-3.0847 17.5293 -1.5572 0.9310
-5.6512 18.6122 -1.7018 0.9249
-7.8492 17.7972 -1.7018 0.9249
-9.9332 16.7237 -1.7018 0.9249
-11.8729 15.4073 -1.7018 0.9249
-13.6402 13.8670 -1.7018 0.9249
-15.1907 12.1105 -1.6997 0.9250
-15.6660 9.6580 -1.6101 0.9288
-16.3141 7.5189 -1.5716 0.9304
-17.4259 5.6065 -1.6015 0.9291
-19.0499 3.6772 -1.6974 0.9251
-19.4035 1.3621 -1.7018 0.9249
-19.4264 -0.9820 -1.7018 0.9249
-19.1672 -3.3119 -1.7018 0.9249
-18.6296 -5.5936 -1.7018 0.9249
-17.8214 -7.7941 -1.7018 0.9249
-16.7543 -9.8815 -1.7018 0.9249
-8.7844 -6.7262 -0.9680 0.9565
-6.9357 -6.7802 -0.8486 0.9618
-5.4679 -6.8153 -0.7644 0.9655
-4.8837 -7.8672 -0.8101 0.9635
-8.1962 -17.6401 -1.7018 0.9249
-6.0145 -18.4980 -1.7018 0.9249
-3.7455 -19.0872 -1.7018 0.9249
-1.4221 -19.3992 -1.7018 0.9249
0.9220 -19.4294 -1.7018 0.9249
3.2526 -19.1773 -1.7018 0.9249
5.5360 -18.6468 -1.7018 0.9249
7.7391 -17.8453 -1.7018 0.9249
9.8297 -16.7847 -1.7018 0.9249
11.7775 -15.4803 -1.7018 0.9249
13.5543 -13.9510 -1.7018 0.9249
15.1342 -12.2191 -1.7018 0.9249
16.4942 -10.3098 -1.7018 0.9249
17.6147 -8.2505 -1.7018 0.9249
18.4793 -6.0716 -1.7018 0.9249
19.0755 -3.8044 -1.7018 0.9249
19.3947 -1.4820 -1.7018 0.9249
19.4321 0.8619 -1.7018 0.9249
17.4712 2.9078 -1.5496 0.9314
16.8228 4.9381 -1.5339 0.9320
14.0736 6.0519 -1.3403 0.9403
13.3118 7.7408 -1.3472 0.9400
12.5307 9.4725 -1.3743 0.9389
12.0707 11.6552 -1.4680 0.9348
6.6545 8.1901 -0.9232 0.9585
5.8867 9.3536 -0.9669 0.9566
8.3049 17.5891 -1.7018 0.9249
6.1286 18.4605 -1.7018 0.9249
3.8633 19.0637 -1.7018 0.9249
1.5419 19.3900 -1.7018 0.9249
-0.8019 19.4347 -1.7018 0.9249
-2.8679 17.5661 -1.5572 0.9310
-4.9603 17.0935 -1.5572 0.9310
-7.6287 17.8928 -1.7018 0.9249
-9.7258 16.8451 -1.7018 0.9249
-11.6817 15.5528 -1.7018 0.9249
-13.4679 14.0345 -1.7018 0.9249
-15.0584 12.3123 -1.7018 0.9249
-15.6287 9.9035 -1.6187 0.9284
-16.2252 7.7223 -1.5721 0.9304
-17.2838 5.7973 -1.5949 0.9294
-18.9769 3.9068 -1.6951 0.9252
-19.3852 1.6017 -1.7018 0.9249
-19.4371 -0.7420 -1.7018 0.9249
-19.2066 -3.0748 -1.7018 0.9249
-18.6973 -5.3631 -1.7018 0.9249
-17.9163 -7.5734 -1.7018 0.9249
-16.8751 -9.6737 -1.7018 0.9249
-9.0336 -6.7416 -0.9862 0.9557
-7.1122 -6.7830 -0.8599 0.9613
-5.5889 -6.7924 -0.7696 0.9653
-4.8684 -7.6306 -0.7919 0.9643
-8.4134 -17.5375 -1.7018 0.9249
-6.2426 -18.4223 -1.7018 0.9249
-3.9810 -19.0395 -1.7018 0.9249
-1.6616 -19.3801 -1.7018 0.9249
0.6819 -19.4393 -1.7018 0.9249
3.0155 -19.2161 -1.7018 0.9249
5.3053 -18.7137 -1.7018 0.9249
7.5180 -17.9396 -1.7018 0.9249
9.6216 -16.9049 -1.7018 0.9249
11.5854 -15.6246 -1.7018 0.9249
13.3809 -14.1174 -1.7018 0.9249
14.9821 -12.4051 -1.7018 0.9249
16.3656 -10.5127 -1.7018 0.9249
17.5115 -8.4675 -1.7018 0.9249
18.4029 -6.2994 -1.7018 0.9249
19.0271 -4.0398 -1.7018 0.9249
19.3749 -1.7215 -1.7018 0.9249
19.4413 0.6218 -1.7018 0.9249
17.5058 2.6917 -1.5496 0.9314
17.0549 4.7782 -1.5496 0.9314
14.2537 5.9217 -1.3504 0.9399
13.3904 7.5667 -1.3456 0.9401
12.6123 9.2916 -1.3705 0.9390
12.0688 11.3686 -1.4506 0.9356
6.7999 8.1610 -0.9294 0.9582
5.8858 9.1008 -0.9482 0.9574
5.8496 12.0026 -1.1682 0.9478
6.3562 18.3834 -1.7018 0.9249
4.0985 19.0145 -1.7018 0.9249
1.7813 19.3695 -1.7018 0.9249
-0.5618 19.4431 -1.7018 0.9249
-2.6507 17.6002 -1.5572 0.9310
-4.7487 17.1535 -1.5572 0.9310
-7.4071 17.9857 -1.7018 0.9249
-9.5170 16.9640 -1.7018 0.9249
-11.4887 15.6959 -1.7018 0.9249
-13.2934 14.1998 -1.7018 0.9249
-14.9052 12.4974 -1.7018 0.9249
-15.5922 10.1525 -1.6278 0.9280
-16.1462 7.9308 -1.5738 0.9303
-17.1527 5.9901 -1.5895 0.9296
-18.8222 4.1180 -1.6857 0.9256
-19.3639 1.8411 -1.7018 0.9249
-19.4447 -0.5018 -1.7018 0.9249
-19.2432 -2.8374 -1.7018 0.9249
-18.7621 -5.1317 -1.7018 0.9249
-18.0085 -7.3515 -1.7018 0.9249
-16.9933 -9.4646 -1.7018 0.9249
-15.7313 -11.4402 -1.7018 0.9249
-7.2877 -6.7805 -0.8709 0.9608
-5.7213 -6.7809 -0.7762 0.9650
-4.8902 -7.4599 -0.7804 0.9648
-8.6294 -17.4322 -1.7018 0.9249
-6.4697 -18.3438 -1.7018 0.9249
-4.2158 -18.9888 -1.7018 0.9249
-1.9009 -19.3581 -1.7018 0.9249
0.4417 -19.4462 -1.7018 0.9249
2.7779 -19.2518 -1.7018 0.9249
5.0737 -18.7778 -1.7018 0.9249
7.2958 -18.0311 -1.7018 0.9249
9.4121 -17.0224 -1.7018 0.9249
11.3915 -15.7665 -1.7018 0.9249
13.2055 -14.2816 -1.7018 0.9249
14.8277 -12.5893 -1.7018 0.9249
16.2345 -10.7141 -1.7018 0.9249
17.4055 -8.6832 -1.7018 0.9249
18.3237 -6.5262 -1.7018 0.9249
18.9757 -4.2745 -1.7018 0.9249
12.4849 -1.2649 -1.0979 0.9509
19.4475 0.3817 -1.7018 0.9249
17.5377 2.4753 -1.5496 0.9314
17.1126 4.5671 -1.5496 0.9314
14.5158 5.8214 -1.3683 0.9391
13.4687 7.3929 -1.3442 0.9402
12.6935 9.1117 -1.3670 0.9392
12.0670 11.0888 -1.4338 0.9363
6.9714 8.1597 -0.9390 0.9578
5.8483 8.8023 -0.9246 0.9585
5.8496 11.6354 -1.1394 0.9491
6.5828 18.3034 -1.7018 0.9249
4.3331 18.9624 -1.7018 0.9249
2.0204 19.3460 -1.7018 0.9249
-0.3216 19.4486 -1.7018 0.9249
-2.4331 17.6316 -1.5572 0.9310
-4.5365 17.2108 -1.5572 0.9310
-7.1844 18.0758 -1.7018 0.9249
-9.3067 17.0802 -1.7018 0.9249
-11.2939 15.8366 -1.7018 0.9249
-13.1170 14.3629 -1.7018 0.9249
-14.7497 12.6806 -1.7018 0.9249
-15.5662 10.4116 -1.6384 0.9276
-16.0670 8.1398 -1.5758 0.9302
-17.0248 6.1824 -1.5846 0.9299
-18.6045 4.3118 -1.6708 0.9262
-19.3397 2.0802 -1.7018 0.9249
-19.4494 -0.2616 -1.7018 0.9249
-19.2767 -2.5994 -1.7018 0.9249
-18.8240 -4.8996 -1.7018 0.9249
-18.0979 -7.1285 -1.7018 0.9249
-17.1089 -9.2539 -1.7018 0.9249
-15.8714 -11.2449 -1.7018 0.9249
-7.4685 -6.7785 -0.8824 0.9603
-5.8604 -6.7742 -0.7837 0.9647
-4.9259 -7.3156 -0.7716 0.9652
-8.8441 -17.3243 -1.7018 0.9249
-6.6958 -18.2624 -1.7018 0.9249
-4.4502 -18.9353 -1.7018 0.9249
-2.1398 -19.3332 -1.7018 0.9249
0.2015 -19.4502 -1.7018 0.9249
2.2792 -17.3057 -1.5271 0.9323
4.8414 -18.8391 -1.7018 0.9249
7.0726 -18.1198 -1.7018 0.9249
9.2011 -17.1374 -1.7018 0.9249
11.1959 -15.9060 -1.7018 0.9249
13.0281 -14.4436 -1.7018 0.9249
14.6710 -12.7715 -1.7018 0.9249
16.1009 -10.9138 -1.7018 0.9249
17.2969 -8.8976 -1.7018 0.9249
18.2417 -6.7521 -1.7018 0.9249
18.9215 -4.5086 -1.7018 0.9249
12.2962 -1.3994 -1.0827 0.9515
19.4507 0.1414 -1.7018 0.9249
17.2483 2.2175 -1.5214 0.9326
17.1677 4.3554 -1.5496 0.9314
14.7849 5.7183 -1.3869 0.9383
13.5469 7.2196 -1.3430 0.9402
12.7742 8.9326 -1.3637 0.9393
12.0652 10.8153 -1.4176 0.9370
7.1471 8.1591 -0.9490 0.9574
5.8850 8.6245 -0.9135 0.9589
5.8503 11.2872 -1.1123 0.9502
6.8084 18.2208 -1.7018 0.9249
4.5670 18.9075 -1.7018 0.9249
2.2593 19.3196 -1.7018 0.9249
