ply
format ascii 1.0
element vertex 1558
property float32 x
property float32 y
property float32 z
property float32 I
end_header
-18.9404 -50.0741 8.4793 0.8051
0.0099 -22.5580 3.5728 0.9127
2.5451 -20.9094 3.3362 0.9182
19.9518 -52.6077 8.9114 0.7962
19.6986 -37.5457 6.7154 0.8422
20.0173 -29.0180 5.5834 0.8670
22.4015 -25.3081 5.3531 0.8721
21.5571 -19.1203 4.5638 0.8899
23.8857 -16.5126 4.5991 0.8891
30.9150 -16.2598 5.5324 0.8681
65.5341 -24.9303 11.1053 0.7528
68.4464 -16.9548 11.1685 0.7516
73.4080 8.7943 11.7098 0.7412
29.6732 7.2591 4.8384 0.8836
20.8049 7.8454 3.5217 0.9139
20.7781 10.8513 3.7127 0.9094
22.7901 15.6578 4.3794 0.8941
22.7295 20.0425 4.7996 0.8845
20.8078 23.3708 4.9561 0.8810
20.8262 30.0038 5.7847 0.8625
45.8777 86.8288 15.5540 0.6719
30.8034 80.5163 13.6539 0.7053
21.6386 86.6523 14.1458 0.6965
10.0926 80.9537 12.9211 0.7186
0.2999 89.7744 14.2190 0.6952
-9.8713 83.7386 13.3547 0.7107
-19.0026 78.3187 12.7644 0.7215
-31.5373 84.1142 14.2280 0.6950
-15.5229 29.8608 5.3304 0.8726
-15.5427 22.7146 4.3593 0.8945
-15.5517 17.7040 3.7323 0.9090
-10.4750 9.3618 2.2251 0.9447
-15.5707 10.8516 3.0060 0.9260
-15.5779 8.2684 2.7933 0.9311
-20.5289 7.8984 3.4838 0.9148
-30.8203 7.7583 5.0337 0.8792
-44.6147 -23.0859 7.9562 0.8159
-34.0482 -23.2034 6.5259 0.8463
-25.9371 -22.6974 5.4589 0.8697
-20.8572 -23.2485 4.9469 0.8812
-18.9499 -27.0814 5.2351 0.8747
-18.5490 -34.7877 6.2441 0.8524
-18.9250 -48.9123 8.3066 0.8086
-0.1611 -22.6419 3.5862 0.9124
2.6119 -22.9000 3.6505 0.9109
19.9484 -53.8224 9.0913 0.7926
19.9721 -38.7767 6.9084 0.8381
15.8048 -23.2857 4.4573 0.8923
22.0567 -25.3013 5.3163 0.8729
21.2779 -19.1620 4.5352 0.8905
23.6886 -16.6423 4.5853 0.8894
31.0234 -16.6174 5.5741 0.8672
65.5580 -25.5076 11.1416 0.7521
68.1012 -17.4167 11.1333 0.7523
73.4064 8.2318 11.6993 0.7414
29.6726 7.0217 4.8295 0.8838
20.8044 7.6661 3.5117 0.9141
20.7775 10.6521 3.6981 0.9098
22.8718 15.4607 4.3725 0.8942
22.8740 19.8646 4.7984 0.8845
20.8068 23.0170 4.9143 0.8819
20.8010 29.4892 5.7157 0.8640
31.7024 81.0255 13.7805 0.7030
22.1144 85.7931 14.0325 0.6985
10.7650 81.3394 12.9952 0.7173
0.9595 88.0218 13.9421 0.7001
-9.2689 84.0842 13.3983 0.7099
-18.4464 78.6151 12.7896 0.7211
-29.6996 81.0718 13.6750 0.7049
-15.5213 30.4168 5.4085 0.8708
-15.3375 22.7822 4.3499 0.8947
-15.5559 17.9808 3.7657 0.9082
-15.7368 14.2798 3.3657 0.9175
-15.5702 11.0268 3.0219 0.9256
-15.5775 8.4197 2.8046 0.9308
-20.1208 7.9165 3.4246 0.9162
-30.0778 7.8134 4.9220 0.8817
20.1944 -31.7649 4.6217 0.8593
20.7407 -25.2854 4.0155 0.8765
21.6204 -20.6785 3.6734 0.8864
25.1780 -18.8422 3.8613 0.8810
30.5199 -17.5462 4.3225 0.8677
55.3565 -23.4749 7.3828 0.7848
63.5539 -18.3024 8.1206 0.7660
36.7627 7.5420 4.6079 0.8596
20.7673 6.9520 2.6890 0.9155
20.8105 9.8918 2.8292 0.9113
20.7845 13.1586 3.0205 0.9056
20.7951 16.9919 3.2973 0.8974
20.8081 21.6737 3.6891 0.8860
22.8902 30.4670 4.6790 0.8576
33.4705 78.5145 10.4798 0.7090
22.7793 78.5412 10.0411 0.7192
12.7993 78.5137 9.7675 0.7257
3.4273 83.7199 10.2881 0.7134
-7.0137 87.7359 10.8070 0.7014
-16.1459 79.4638 9.9563 0.7212
-24.7359 74.3587 9.6220 0.7292
-15.5147 32.7996 4.4551 0.8640
-15.5374 24.6447 3.5772 0.8892
-15.7278 19.3224 3.0591 0.9045
-15.5592 14.9944 2.6532 0.9166
-15.7435 11.8748 2.4213 0.9236
-15.5758 9.0331 2.2108 0.9300
-18.4628 7.9119 2.4663 0.9222
-27.2812 7.9682 3.4897 0.8918
-48.1982 -22.6871 6.5408 0.8068
-36.2389 -22.7515 5.2538 0.8416
-28.8963 -23.4300 4.5678 0.8608
-23.0295 -23.8069 4.0670 0.8750
-25.5226 -33.7049 5.1911 0.8433
-19.1792 -32.9273 4.6788 0.8576
-18.9994 -44.1058 5.8966 0.8240
-19.0975 -64.9289 8.3100 0.7613
3.0481 -40.0320 4.9295 0.8506
21.5708 -65.6711 8.4872 0.7569
19.8137 -42.3009 5.7354 0.8284
19.9910 -31.9760 4.6303 0.8590
20.3730 -25.2234 3.9811 0.8775
20.9413 -20.3342 3.5840 0.8890
23.6131 -17.9510 3.6420 0.8873
30.3914 -17.7791 4.3232 0.8677
55.1822 -23.8944 7.3834 0.7848
65.6334 -19.4395 8.4048 0.7589
36.7619 7.2528 4.6008 0.8598
21.2985 6.9513 2.7509 0.9137
20.8100 9.6995 2.8191 0.9116
20.8191 12.9612 3.0112 0.9059
20.7944 16.7308 3.2771 0.8980
20.8072 21.3476 3.6603 0.8868
22.8889 29.9907 4.6323 0.8590
34.0802 78.2994 10.4851 0.7088
23.4170 78.5177 10.0604 0.7188
13.4082 78.5081 9.7791 0.7254
4.0053 82.5723 10.1505 0.7167
-6.3736 88.1031 10.8460 0.7005
-15.8343 81.0640 10.1415 0.7169
-24.5273 75.6345 9.7628 0.7258
-15.5129 33.4473 4.5270 0.8619
-15.7110 25.3426 3.6611 0.8868
-15.6898 19.5761 3.0804 0.9038
-15.5586 15.2221 2.6726 0.9160
-15.7430 12.0621 2.4351 0.9232
-15.5753 9.1908 2.2205 0.9297
-18.0818 7.9108 2.4233 0.9235
-26.6053 7.9894 3.4108 0.8941
-50.1801 -23.1586 6.7858 0.8003
-36.7682 -22.6983 5.3055 0.8402
-29.1787 -23.2957 4.5845 0.8603
-23.1747 -23.5976 4.0610 0.8752
-19.1700 -24.9222 3.8606 0.8810
-19.3228 -32.6049 4.6536 0.8584
-18.9968 -43.1986 5.7943 0.8268
-19.0065 -62.8613 8.0635 0.7675
2.7256 -39.7626 4.8937 0.8516
21.5599 -67.3503 8.6829 0.7520
19.7469 -43.0010 5.8100 0.8264
19.8420 -32.2776 4.6521 0.8584
20.0593 -25.2226 3.9569 0.8782
22.6011 -22.2801 3.8968 0.8799
23.5160 -18.1591 3.6481 0.8872
29.8735 -17.7805 4.2685 0.8693
55.3984 -24.4868 7.4369 0.7834
64.9188 -19.7625 8.3322 0.7607
36.7611 6.9645 4.5940 0.8600
21.8522 6.9498 2.8155 0.9117
20.8095 9.5085 2.8092 0.9119
20.8185 12.7436 2.9971 0.9063
20.7937 16.4730 3.2572 0.8986
20.8414 21.0620 3.6382 0.8874
22.7617 29.3614 4.5616 0.8609
34.6709 78.0397 10.4851 0.7088
24.0071 78.3307 10.0594 0.7188
13.9993 78.3955 9.7780 0.7255
2.2543 40.1964 4.9432 0.8502
-5.7287 88.4731 10.8859 0.6996
-17.2802 92.1617 11.5132 0.6853
-24.1210 76.3426 9.8304 0.7242
-15.5110 34.1163 4.6016 0.8598
-15.7098 25.7734 3.7061 0.8855
-15.5511 19.7062 3.0823 0.9038
-15.5579 15.4533 2.6925 0.9154
-15.5672 12.1152 2.4220 0.9236
-15.5749 9.3499 2.2305 0.9294
-17.7137 7.9098 2.3820 0.9248
-25.7072 7.9320 3.3033 0.8973
-44.7808 8.0839 5.5873 0.8324
-93.4637 -17.3417 11.6718 0.6818
-51.1871 -23.1558 6.8982 0.7974
-37.3438 -22.6657 5.3637 0.8386
-29.5473 -23.2266 4.6147 0.8594
-23.3743 -23.4439 4.0648 0.8751
-18.5993 -23.8059 3.7093 0.8854
-19.3764 -32.1391 4.6079 0.8596
-18.4626 -41.1374 5.5364 0.8338
-18.9454 -60.9919 7.8418 0.7731
2.4271 -39.8148 4.8977 0.8515
7.9491 -43.2982 5.4052 0.8374
21.5781 -69.2033 8.9006 0.7467
19.9746 -44.3780 5.9754 0.8219
19.8053 -32.7704 4.7015 0.8570
19.9519 -25.4803 3.9736 0.8777
22.1508 -22.1688 3.8479 0.8814
22.8493 -17.9215 3.5656 0.8896
30.2213 -18.2981 4.3379 0.8673
55.1079 -24.8578 7.4229 0.7838
64.9651 -20.3142 8.3576 0.7601
38.0418 6.9099 4.7474 0.8557
22.5441 6.9827 2.8978 0.9093
20.8090 9.3189 2.7995 0.9122
20.8179 12.5280 2.9833 0.9067
20.7930 16.2183 3.2378 0.8992
20.8406 20.7452 3.6106 0.8882
22.8863 29.0660 4.5424 0.8615
35.3409 77.9552 10.5094 0.7083
24.7404 78.5982 10.1174 0.7174
14.6301 78.4963 9.8041 0.7248
5.1400 80.7344 9.9330 0.7218
-5.0790 88.8458 10.9267 0.6986
-16.6276 92.5360 11.5440 0.6846
-23.9963 77.9939 10.0195 0.7197
-15.5091 34.8077 4.6789 0.8576
-15.5338 25.9233 3.7107 0.8853
-15.5502 20.0142 3.1120 0.9029
-15.5573 15.6879 2.7128 0.9148
-15.5667 12.3047 2.4364 0.9231
-15.5744 9.5104 2.2406 0.9291
-17.3580 7.9088 2.3421 0.9260
-25.0283 7.9301 3.2237 0.8996
-42.3355 7.9732 5.2895 0.8406
-52.0014 -23.0525 6.9842 0.7951
-38.8659 -23.1895 5.5570 0.8333
-29.9936 -23.2130 4.6568 0.8583
-23.5990 -23.3142 4.0732 0.8749
-18.5983 -23.4374 3.6737 0.8864
-19.0379 -31.0447 4.4715 0.8635
-18.4603 -40.3142 5.4442 0.8364
-18.9995 -59.5734 7.6777 0.7772
2.1524 -40.3247 4.9583 0.8498
7.6137 -43.3111 5.3995 0.8376
21.4618 -70.7056 9.0727 0.7425
15.7090 -35.6178 4.7798 0.8548
13.8144 -23.2527 3.3209 0.8967
20.0172 -25.9655 4.0256 0.8762
20.6513 -20.9827 3.6148 0.8881
22.5104 -17.9320 3.5337 0.8905
29.5637 -18.2066 4.2631 0.8694
54.8675 -25.2499 7.4160 0.7840
65.7913 -21.1195 8.4842 0.7569
45.0579 7.8330 5.6154 0.8317
23.0416 6.9465 2.9549 0.9076
20.8084 9.1306 2.7901 0.9125
20.8173 12.3143 2.9698 0.9071
20.7923 15.9666 3.2189 0.8997
20.8397 20.4332 3.5836 0.8890
22.8851 28.6169 4.4991 0.8627
36.0470 77.9416 10.5439 0.7075
25.3940 78.5964 10.1416 0.7169
12.6433 65.1019 8.1429 0.7655
2.8470 39.9539 4.9182 0.8509
-4.4245 89.2212 10.9685 0.6977
-15.9662 92.8807 11.5716 0.6840
-9.7610 32.6004 4.1784 0.8718
-15.5071 35.5228 4.7591 0.8554
-15.5326 26.3711 3.7579 0.8840
-15.5494 20.3284 3.1425 0.9020
-15.5566 15.9261 2.7336 0.9142
-15.5661 12.4966 2.4510 0.9227
-15.5740 9.6725 2.2510 0.9288
-17.0141 7.9078 2.3037 0.9272
-24.7858 8.0598 3.2002 0.9003
-39.7931 7.8062 4.9791 0.8492
-93.0196 -15.8091 11.5851 0.6837
-52.7419 -22.9056 7.0602 0.7932
-39.5393 -23.1881 5.6281 0.8313
-30.1665 -22.9845 4.6566 0.8583
-23.8842 -23.2420 4.0920 0.8743
-18.5973 -23.0759 3.6390 0.8874
-18.6161 -29.8486 4.3193 0.8678
-18.6787 -39.9901 5.4194 0.8370
-18.2093 -55.6399 7.1883 0.7898
1.8239 -39.8190 4.8943 0.8516
6.9450 -41.3362 5.1466 0.8446
21.5948 -73.1275 9.3622 0.7354
19.9695 -46.2203 6.1822 0.8164
20.1146 -34.4474 4.8979 0.8515
20.2382 -26.6665 4.1104 0.8738
20.7767 -21.4316 3.6650 0.8867
22.6067 -18.2896 3.5704 0.8894
29.5280 -18.4938 4.2780 0.8690
56.7435 -26.6346 7.6966 0.7768
67.5045 -22.2335 8.7265 0.7509
45.1158 7.4924 5.6154 0.8317
23.7995 6.9792 3.0453 0.9049
20.7728 8.9283 2.7762 0.9129
20.8167 12.1026 2.9566 0.9075
20.7934 15.7191 3.2005 0.9003
20.8037 20.0919 3.5512 0.8900
22.8838 28.1762 4.4569 0.8639
36.7579 77.9277 10.5793 0.7066
2.4692 7.4496 0.9636 0.9689
15.8584 78.4837 9.8313 0.7242
6.2182 78.8547 9.7122 0.7270
-3.7647 89.5997 11.0112 0.6967
-14.9731 91.2273 11.3512 0.6890
-22.8957 78.6252 10.0549 0.7189
-15.4387 36.1075 4.8217 0.8536
-15.4287 26.6534 3.7814 0.8833
-15.5485 20.6487 3.1737 0.9011
-15.5559 16.1681 2.7549 0.9135
-15.5656 12.6908 2.4659 0.9223
-15.5735 9.8360 2.2616 0.9285
-16.6812 7.9069 2.2666 0.9283
-23.7638 7.9266 3.0759 0.9040
-38.7018 7.8963 4.8499 0.8528
-52.9135 -22.5065 7.0602 0.7932
-32.0039 -18.4453 4.5365 0.8617
-30.4912 -22.8698 4.6799 0.8576
-24.1504 -23.1483 4.1075 0.8739
-18.7420 -22.8992 3.6333 0.8876
-18.6148 -29.3502 4.2675 0.8693
-18.9867 -39.8616 5.4212 0.8370
-18.2974 -54.5122 7.0602 0.7932
1.5215 -39.7928 4.8895 0.8517
6.6478 -41.4830 5.1585 0.8442
21.5890 -75.1943 9.6057 0.7296
19.9668 -47.1904 6.2916 0.8134
20.0011 -34.8553 4.9342 0.8505
20.2202 -27.0649 4.1482 0.8727
20.5009 -21.4693 3.6449 0.8872
22.4717 -18.4631 3.5710 0.8894
28.2273 -17.9776 4.1091 0.8738
35.3697 -16.9293 4.8147 0.8538
70.6590 -23.8657 9.1573 0.7404
45.1711 7.1512 5.6154 0.8317
24.3680 6.9464 3.1112 0.9029
20.7722 8.7428 2.7672 0.9132
20.7971 11.8819 2.9409 0.9080
20.8261 15.4980 3.1875 0.9007
20.8380 19.8230 3.5314 0.8906
22.8826 27.7437 4.4157 0.8651
2.5065 7.3750 0.9564 0.9691
16.4752 78.4777 9.8459 0.7239
6.8077 78.7356 9.7036 0.7272
-3.1000 89.9811 11.0548 0.6957
-14.0734 89.9944 11.1842 0.6927
-22.3426 78.9425 10.0737 0.7185
-15.4366 36.8707 4.9079 0.8512
-15.2069 26.7338 3.7764 0.8834
-15.5476 20.9754 3.2058 0.9001
-15.6101 16.4716 2.7864 0.9126
-15.5245 12.8537 2.4747 0.9220
-15.5731 10.0011 2.2725 0.9281
-16.3588 7.9060 2.2309 0.9294
-23.1744 7.9250 3.0072 0.9060
-37.5626 7.9599 4.7145 0.8566
-53.6127 -22.3268 7.1308 0.7913
-40.9381 -23.1843 5.7767 0.8273
-30.9742 -22.8684 4.7274 0.8563
-24.2384 -22.8839 4.0929 0.8743
-19.0320 -22.8984 3.6559 0.8869
-18.6134 -28.8636 4.2170 0.8707
-18.9843 -39.0926 5.3360 0.8393
-18.7087 -54.3724 7.0602 0.7932
1.2246 -39.9240 4.9043 0.8513
6.3127 -41.3909 5.1409 0.8447
21.3537 -76.5515 9.7582 0.7259
19.7340 -47.6399 6.3314 0.8124
19.9994 -35.4704 4.9998 0.8487
20.0043 -27.2022 4.1459 0.8728
20.6432 -21.9480 3.6996 0.8857
22.5731 -18.8339 3.6097 0.8883
26.6319 -17.2457 3.8957 0.8800
34.8279 -16.9946 4.7583 0.8554
69.4100 -24.0296 9.0187 0.7438
45.7464 6.8884 5.6803 0.8299
25.1899 6.9754 3.2093 0.9000
20.7717 8.5584 2.7584 0.9134
20.8155 11.6848 2.9310 0.9083
20.8254 15.2544 3.1696 0.9012
20.8372 19.5243 3.5061 0.8913
22.8815 27.3191 4.3755 0.8662
2.5613 7.3536 0.9561 0.9691
17.0952 78.4759 9.8616 0.7235
7.4072 78.7340 9.7100 0.7271
-2.3877 88.7966 10.9068 0.6991
-13.1995 88.7960 11.0226 0.6964
-21.7873 79.2610 10.0930 0.7180
-15.3469 37.4482 4.9692 0.8495
-15.1508 27.1100 3.8132 0.8824
-15.7216 21.5486 3.2752 0.8981
-15.6094 16.7221 2.8087 0.9119
-15.5645 13.0863 2.4968 0.9213
-15.5726 10.1678 2.2836 0.9278
-16.0465 7.9052 2.1964 0.9304
-22.6102 7.9234 2.9417 0.9080
-36.1942 7.9561 4.5502 0.8613
-56.5245 -23.0399 7.4947 0.7819
-41.4957 -23.0877 5.8306 0.8258
-31.4671 -22.8671 4.7761 0.8549
-24.6071 -22.8829 4.1259 0.8733
-19.3257 -22.8976 3.6790 0.8863
-18.6542 -28.4523 4.1774 0.8719
-18.9446 -38.2722 5.2434 0.8419
-18.5990 -52.7549 6.8682 0.7982
0.9263 -40.0810 4.9226 0.8508
6.2282 -43.0157 5.3367 0.8393
21.3577 -78.8632 10.0320 0.7194
19.7657 -48.7550 6.4596 0.8090
20.1094 -36.3040 5.0957 0.8460
20.0211 -27.6604 4.1926 0.8714
20.5292 -22.1598 3.7090 0.8854
22.1062 -18.7295 3.5575 0.8898
30.0325 -19.7714 4.4149 0.8651
32.8437 -16.3347 4.5039 0.8626
68.1141 -24.1587 8.8738 0.7473
70.6725 10.0964 8.7656 0.7500
25.8144 6.9388 3.2821 0.8979
20.7712 8.3752 2.7499 0.9137
20.8150 11.4785 2.9186 0.9087
20.8248 15.0134 3.1522 0.9017
20.8364 19.2300 3.4814 0.8920
22.7423 26.7399 4.3101 0.8681
2.6336 7.3811 0.9622 0.9689
17.7169 78.4742 9.8779 0.7231
8.0076 78.7323 9.7170 0.7269
-1.7288 89.4342 10.9832 0.6973
-12.0507 85.5044 10.6024 0.7061
-21.2299 79.5808 10.1130 0.7175
-31.5506 78.6768 10.4081 0.7106
-15.0178 27.3554 3.8317 0.8818
-15.7206 21.8927 3.3093 0.8971
-15.6087 16.9767 2.8316 0.9112
-15.5639 13.2878 2.5127 0.9208
-15.5721 10.3361 2.2949 0.9274
-15.7434 7.9043 2.1630 0.9315
-22.2861 7.9994 2.9073 0.9090
-34.9401 7.9576 4.4000 0.8655
-57.7137 -23.0177 7.6291 0.7785
-41.6403 -22.7579 5.8266 0.8259
-32.3630 -23.1466 4.8854 0.8518
-24.9818 -22.8818 4.1596 0.8724
-19.6233 -22.8967 3.7026 0.8856
-18.9543 -28.4391 4.1963 0.8713
-19.0075 -37.6806 5.1819 0.8436
-18.5968 -51.5042 6.7235 0.8020
0.6236 -40.1064 4.9250 0.8507
5.5913 -40.7876 5.0549 0.8471
21.7266 -82.6965 10.4984 0.7085
19.7286 -49.7395 6.5701 0.8060
19.9711 -36.7057 5.1308 0.8450
20.0199 -28.1033 4.2367 0.8702
23.0945 -25.3100 4.2070 0.8710
22.0536 -18.9730 3.5720 0.8894
24.2679 -16.2404 3.5854 0.8890
32.3794 -16.4101 4.4571 0.8639
65.6696 -23.8518 8.5786 0.7546
67.9956 -15.7564 8.5700 0.7548
73.4111 9.9223 9.0957 0.7419
26.7388 6.9711 3.3929 0.8946
20.7707 8.1931 2.7416 0.9139
20.8144 11.2739 2.9065 0.9090
20.8241 14.7751 3.1351 0.9022
20.8356 18.9398 3.4573 0.8927
20.8098 24.0965 3.9093 0.8796
28.6594 78.4433 10.2543 0.7142
18.3406 78.4725 9.8949 0.7227
8.6089 78.7306 9.7245 0.7267
-1.0491 89.1029 10.9412 0.6983
-11.2451 84.3977 10.4543 0.7095
-20.6702 79.9018 10.1337 0.7171
-31.5476 80.4227 10.6072 0.7060
-15.0165 27.8496 3.8849 0.8803
-15.6257 22.1113 3.3244 0.8966
-15.5531 17.1749 2.8450 0.9108
-15.5634 13.4919 2.5290 0.9203
-15.5717 10.5062 2.3064 0.9271
-15.5787 7.9695 2.1486 0.9319
-22.0343 8.0974 2.8824 0.9097
-33.7460 7.9543 4.2570 0.8696
-92.5819 -0.9153 11.3682 0.6886
-59.0442 -23.0329 7.7818 0.7746
-42.3944 -22.7558 5.9079 0.8237
-33.0641 -23.2725 4.9646 0.8496
-25.3663 -22.8840 4.1947 0.8714
-20.2997 -23.3271 3.7969 0.8828
-19.0014 -28.0483 4.1598 0.8724
-18.9772 -36.9242 5.0974 0.8459
-19.0198 -51.4555 6.7357 0.8017
0.3263 -40.8134 5.0114 0.8483
5.4165 -41.8601 5.1826 0.8436
19.8061 -51.0568 6.7242 0.8020
19.9145 -37.2697 5.1885 0.8434
20.0186 -28.5559 4.2820 0.8689
22.7456 -25.3090 4.1781 0.8719
22.0876 -19.2945 3.6010 0.8885
26.8716 -18.2783 3.9904 0.8772
33.6734 -17.3869 4.6532 0.8584
65.3304 -24.2888 8.5580 0.7551
67.2958 -16.1312 8.4969 0.7566
73.4095 9.3579 9.0865 0.7421
27.5817 6.9687 3.4930 0.8917
20.7702 8.0120 2.7334 0.9142
20.8138 11.0710 2.8946 0.9094
15.6667 10.9388 2.3460 0.9259
20.8348 18.6535 3.4337 0.8934
20.8088 23.7305 3.8753 0.8806
29.3086 78.3780 10.2744 0.7137
18.9244 78.2962 9.8904 0.7228
9.2092 78.7125 9.7306 0.7266
-0.3775 89.4881 10.9879 0.6972
-10.5583 84.0906 10.4061 0.7107
-20.1079 80.2244 10.1550 0.7165
-31.5425 82.2318 10.8141 0.7012
-15.6575 29.5711 4.1084 0.8738
-15.5437 22.3517 3.3428 0.8961
-15.5524 17.4371 2.8689 0.9101
-10.5685 9.3027 1.7287 0.9448
-15.5712 10.6780 2.3183 0.9267
-15.5783 8.1184 2.1569 0.9317
-21.0563 7.9191 2.7622 0.9133
-32.6269 7.9512 4.1233 0.8734
-43.9709 -23.1758 6.1030 0.8185
-33.6186 -23.2849 5.0213 0.8481
-25.7539 -22.8830 4.2301 0.8704
-26.3105 -29.7769 4.8789 0.8520
-19.1091 -27.7534 4.1373 0.8730
-18.6321 -35.5888 4.9324 0.8505
-19.0165 -50.2754 6.5999 0.8052
0.0182 -41.5577 5.1026 0.8458
5.0073 -41.1379 5.0884 0.8462
19.9518 -52.6077 6.9083 0.7971
19.8114 -37.7608 5.2358 0.8421
20.2010 -29.2842 4.3682 0.8664
22.4014 -25.3081 4.1499 0.8727
22.6239 -20.0665 3.7131 0.8853
26.0303 -17.9952 3.8855 0.8803
32.3294 -17.0037 4.4851 0.8631
65.5519 -24.9370 8.6115 0.7538
66.5615 -16.4879 8.4197 0.7585
73.4080 8.7944 9.0778 0.7423
28.3351 6.9318 3.5817 0.8891
20.7697 7.8321 2.7255 0.9144
20.8133 10.8697 2.8831 0.9097
20.8228 14.3062 3.1020 0.9032
20.8340 18.3710 3.4106 0.8941
20.8078 23.3708 3.8421 0.8815
30.0640 78.5834 10.3308 0.7124
19.5670 78.3565 9.9164 0.7222
9.8042 78.6406 9.7306 0.7266
0.2999 89.7744 11.0230 0.6964
-9.9537 84.4374 10.4394 0.7099
-19.5435 80.5482 10.1770 0.7160
-31.5373 84.1142 11.0300 0.6963
-15.5229 29.8608 4.1322 0.8732
-15.5427 22.7146 3.3794 0.8950
-15.5517 17.7040 2.8934 0.9094
-10.4740 9.3609 1.7248 0.9450
-15.5707 10.8516 2.3303 0.9264
-15.5779 8.2684 2.1655 0.9314
-20.5289 7.8984 2.7008 0.9152
-31.7956 8.0039 4.0258 0.8762
-44.7841 -23.1736 6.1913 0.8161
-34.1391 -23.2653 5.0726 0.8466
-26.6253 -23.2996 4.3442 0.8671
-26.6596 -29.7163 4.9018 0.8514
-19.2453 -27.5036 4.1217 0.8735
-18.6303 -34.9401 4.8618 0.8525
-19.0134 -49.1406 6.4696 0.8087
-0.2914 -40.9426 5.0272 0.8479
2.5482 -22.3414 2.7610 0.9134
20.1224 -54.2920 7.1093 0.7919
19.9395 -38.7134 5.3469 0.8390
15.7910 -23.2654 3.4525 0.8929
22.0459 -25.2890 4.1193 0.8735
22.1398 -19.9382 3.6583 0.8869
26.1613 -18.3796 3.9257 0.8791
33.8234 -18.1172 4.7112 0.8567
65.5169 -25.4916 8.6319 0.7533
65.3447 -16.7117 8.2816 0.7620
73.4064 8.2318 9.0697 0.7425
29.2815 6.9291 3.6946 0.8858
20.7692 7.6531 2.7178 0.9147
20.8127 10.6701 2.8717 0.9100
20.8222 14.0752 3.0860 0.9037
20.8332 18.0922 3.3879 0.8948
20.8068 23.0170 3.8097 0.8825
30.7462 78.5815 10.3608 0.7117
20.2469 78.5483 9.9598 0.7212
10.3978 78.5644 9.7306 0.7266
0.9595 88.0218 10.8084 0.7013
-9.3462 84.7859 10.4735 0.7091
-18.6548 79.5033 10.0269 0.7196
-30.5364 83.3560 10.9000 0.6992
-15.5213 30.4168 4.1929 0.8714
-15.4191 22.9035 3.3901 0.8947
-15.5559 17.9808 2.9193 0.9086
-15.7368 14.2798 2.6092 0.9179
-15.5702 11.0268 2.3427 0.9260
-15.5775 8.4197 2.1742 0.9311
-20.1208 7.9165 2.6549 0.9166
-30.5238 7.9293 3.8722 0.8806
19.8612 -31.2406 3.2388 0.8619
20.5288 -25.0271 2.8320 0.8781
26.3153 -25.1690 3.1858 0.8640
31.3639 -23.4714 3.4273 0.8545
34.3341 -19.7390 3.4649 0.8530
58.1680 -24.6671 5.5277 0.7759
64.6666 -18.6229 5.8875 0.7632
33.8046 6.9351 3.0191 0.8706
25.9869 8.6993 2.3976 0.8958
22.0776 10.4941 2.1386 0.9065
22.3941 14.1776 2.3189 0.8990
20.7952 16.9919 2.3495 0.8978
19.9016 20.7295 2.5141 0.8910
20.8548 27.7579 3.0375 0.8699
24.6916 42.7616 4.3201 0.8201
33.5331 78.6613 7.4812 0.7094
22.8873 78.9140 7.1886 0.7190
12.8692 78.9419 6.9977 0.7253
3.4273 83.7199 7.3307 0.7143
-7.2753 91.0078 7.9876 0.6931
-16.3613 80.5238 7.1889 0.7190
-25.0590 75.3295 6.9456 0.7270
-15.5147 32.7996 3.1744 0.8644
-15.4750 24.5457 2.5386 0.8900
-15.5528 19.1074 2.1555 0.9058
-15.4317 14.8715 1.8750 0.9175
-15.5682 11.7426 1.7060 0.9247
-15.7070 9.1092 1.5886 0.9297
-18.4628 7.9119 1.7574 0.9225
-27.2812 7.9682 2.4865 0.8922
-48.4799 -22.8197 4.6878 0.8064
-36.4011 -22.8533 3.7603 0.8415
-29.2600 -23.7248 3.2957 0.8596
-23.0923 -23.8717 2.9058 0.8751
-18.8418 -24.8823 2.7306 0.8822
-19.5363 -33.5404 3.3959 0.8557
-19.2964 -44.7954 4.2672 0.8221
-18.6285 -63.3344 5.7758 0.7671
-9.6633 -57.8982 5.1355 0.7900
3.0295 -39.7887 3.4911 0.8520
21.5822 -65.7060 6.0507 0.7575
19.8033 -42.2786 4.0846 0.8291
19.8597 -31.7659 3.2776 0.8603
20.0238 -24.7912 2.7881 0.8799
22.4602 -21.8090 2.7390 0.8819
23.2632 -17.6850 2.5566 0.8893
32.0450 -18.7465 3.2481 0.8615
57.1347 -24.7399 5.4471 0.7788
65.0126 -19.2556 5.9321 0.7617
35.0656 6.9181 3.1270 0.8663
26.6487 8.6974 2.4525 0.8935
22.0595 10.2819 2.1293 0.9069
22.3745 13.9296 2.3059 0.8996
20.7944 16.7309 2.3350 0.8984
19.9007 20.4176 2.4944 0.8918
20.8536 27.3239 3.0072 0.8711
34.2369 78.6593 7.5054 0.7086
23.4682 78.6893 7.1841 0.7191
13.4439 78.7172 6.9866 0.7257
4.0117 82.7012 7.2439 0.7172
-6.7788 93.7046 8.2195 0.6858
-15.7864 80.8190 7.2044 0.7185
-24.5273 75.6345 6.9564 0.7267
-15.5129 33.4473 3.2257 0.8624
-15.1991 24.5167 2.5237 0.8906
-15.5519 19.4041 2.1756 0.9050
-15.5586 15.2221 1.9043 0.9163
-15.5677 11.9278 1.7158 0.9243
-15.7066 9.2682 1.5955 0.9294
-18.0818 7.9108 1.7267 0.9238
-27.0108 8.1112 2.4674 0.8929
-50.5277 -23.3190 4.8687 0.7998
-37.0166 -22.8516 3.8059 0.8397
-29.4376 -23.5024 3.2956 0.8596
-23.0803 -23.5014 2.8818 0.8761
-18.8829 -24.5489 2.7096 0.8831
-26.1036 -44.0466 4.4795 0.8142
-19.6133 -44.6005 4.2627 0.8223
-19.0246 -62.9211 5.7510 0.7680
-10.1099 -57.8777 5.1406 0.7898
2.7198 -39.6782 3.4795 0.8524
21.6104 -67.5079 6.2014 0.7523
19.7767 -43.0660 4.1461 0.8267
19.8420 -32.2776 3.3148 0.8589
19.7157 -24.7905 2.7712 0.8806
25.4468 -25.0854 3.1262 0.8663
22.8580 -17.6510 2.5267 0.8905
32.1589 -19.1407 3.2742 0.8605
56.6024 -25.0189 5.4142 0.7800
65.1926 -19.8459 5.9620 0.7606
36.4953 6.9142 3.2497 0.8614
27.3414 8.6955 2.5101 0.8912
22.0105 10.0573 2.1172 0.9074
22.3554 13.6844 2.2932 0.9001
20.7937 16.4731 2.3209 0.8990
19.8998 20.1104 2.4752 0.8926
20.8174 26.8534 2.9727 0.8725
35.0087 78.8003 7.5439 0.7074
24.0261 78.3927 7.1734 0.7195
14.0037 78.4206 6.9695 0.7262
4.6132 82.2556 7.2077 0.7184
-6.0017 92.6899 8.1263 0.6887
-24.1146 76.3225 7.0027 0.7251
-15.6856 34.5002 3.3157 0.8588
-14.9643 24.5502 2.5154 0.8910
-15.5511 19.7063 2.1962 0.9041
-15.5121 15.4078 1.9128 0.9160
-15.5672 12.1152 1.7258 0.9239
-15.7061 9.4287 1.6027 0.9291
-17.7137 7.9098 1.6972 0.9251
-25.7072 7.9320 2.3537 0.8976
-44.7808 8.0839 3.9811 0.8330
-51.3818 -23.2438 4.9339 0.7974
-48.3961 -29.3738 4.9530 0.7967
-29.6947 -23.3425 3.3045 0.8593
-23.0575 -23.1260 2.8571 0.8771
-18.5993 -23.8059 2.6430 0.8858
-19.4160 -32.2047 3.2900 0.8599
-18.6487 -41.5522 3.9847 0.8329
-19.0471 -61.3196 5.6176 0.7727
2.4346 -39.9372 3.5005 0.8516
21.6054 -69.2909 6.3500 0.7472
20.0802 -44.6125 4.2802 0.8216
19.8053 -32.7704 3.3500 0.8575
19.5186 -24.9270 2.7699 0.8806
25.0641 -25.0844 3.1024 0.8673
22.7088 -17.8113 2.5250 0.8906
32.0750 -19.4205 3.2805 0.8602
56.1334 -25.3203 5.3875 0.7809
66.0382 -20.6497 6.0535 0.7574
38.0418 6.9099 3.3827 0.8562
28.2342 8.7451 2.5860 0.8881
21.9569 9.8330 2.1048 0.9079
22.3367 13.4420 2.2808 0.9006
20.7930 16.2183 2.3071 0.8995
19.8990 19.8080 2.4564 0.8934
20.8513 26.4815 2.9488 0.8734
35.6583 78.6554 7.5556 0.7070
24.7679 78.6857 7.2171 0.7180
14.6707 78.7138 7.0052 0.7251
5.1615 81.0718 7.1072 0.7217
-5.1347 89.8200 7.8711 0.6968
-23.9962 77.9939 7.1392 0.7206
-15.5091 34.8078 3.3339 0.8581
-15.4517 25.7862 2.6300 0.8863
-15.5502 20.0143 2.2174 0.9032
-15.4058 15.5352 1.9141 0.9159
-15.5667 12.3048 1.7360 0.9234
-15.7056 9.5905 1.6100 0.9288
-17.3580 7.9088 1.6688 0.9263
-25.0283 7.9301 2.2970 0.8999
-42.3355 7.9732 3.7690 0.8412
-69.0737 4.5286 6.0561 0.7573
-52.0899 -23.0917 4.9850 0.7955
-49.7960 -29.7111 5.0731 0.7923
-30.0240 -23.2365 3.3216 0.8586
-23.3569 -23.0750 2.8725 0.8765
-18.5983 -23.4374 2.6177 0.8868
-25.2013 -41.0953 4.2175 0.8240
-18.6464 -40.7207 3.9183 0.8354
-18.5150 -58.0543 5.3311 0.7830
2.2198 -41.5866 3.6435 0.8460
21.4089 -70.5313 6.4487 0.7438
15.7076 -35.6144 3.4054 0.8553
19.9864 -33.6416 3.4235 0.8546
19.5174 -25.3171 2.7967 0.8795
24.6871 -25.0833 3.0791 0.8682
22.5226 -17.9417 2.5193 0.8908
31.7785 -19.5706 3.2652 0.8608
55.7717 -25.6660 5.3713 0.7815
65.4675 -21.0156 6.0155 0.7588
39.9198 6.9398 3.5449 0.8499
28.2995 8.5316 2.5860 0.8881
21.9043 9.6114 2.0928 0.9084
22.3185 13.2024 2.2687 0.9011
20.7923 15.9666 2.2936 0.9001
19.8982 19.5101 2.4381 0.8941
20.8501 26.0723 2.9207 0.8745
36.3514 78.5998 7.5764 0.7063
25.4942 78.9067 7.2548 0.7168
12.6673 65.2253 5.8131 0.7658
2.8470 39.9534 3.5043 0.8514
-4.4245 89.2213 7.8154 0.6986
-16.2811 94.7127 8.4078 0.6799
-9.7593 32.5947 2.9767 0.8723
-15.5071 35.5228 3.3911 0.8559
-15.1921 25.7931 2.6189 0.8867
-15.5494 20.3284 2.2391 0.9023
-15.4052 15.7711 1.9288 0.9153
-15.5661 12.4966 1.7464 0.9230
-15.5740 9.6725 1.6039 0.9290
-17.0141 7.9078 1.6415 0.9274
-24.3814 7.9283 2.2430 0.9022
-40.5238 7.9495 3.6130 0.8472
-92.8499 -15.7802 8.2398 0.6851
-53.0029 -23.0189 5.0556 0.7929
-40.4318 -23.7115 4.1007 0.8284
-30.1665 -22.9845 3.3180 0.8587
-23.7194 -23.0816 2.8956 0.8756
-18.5973 -23.0759 2.5929 0.8878
-18.6161 -29.8486 3.0777 0.8683
-18.7650 -40.1748 3.8793 0.8369
-18.7163 -57.1891 5.2645 0.7854
-19.0655 -96.2269 8.5824 0.6744
1.9237 -41.9980 3.6782 0.8447
21.3658 -72.3522 6.6002 0.7387
20.1614 -46.6644 4.4474 0.8154
20.1950 -34.5850 3.5039 0.8515
19.7739 -26.0547 2.8616 0.8769
24.2537 -25.0182 3.0485 0.8694
22.4048 -18.1263 2.5213 0.8907
36.2870 -22.7270 3.7460 0.8420
55.7713 -26.1782 5.3901 0.7808
66.4835 -21.8972 6.1239 0.7550
78.4195 -15.6914 6.9968 0.7253
41.5590 6.9017 3.6857 0.8444
28.3632 8.3175 2.5860 0.8881
21.8526 9.3925 2.0810 0.9089
22.2684 12.9467 2.2536 0.9017
20.8734 15.7796 2.2893 0.9003
19.8974 19.2165 2.4201 0.8949
20.8140 25.6277 2.8885 0.8758
2.4691 7.4493 0.6866 0.9690
15.9042 78.7104 7.0254 0.7244
6.2182 78.8547 6.9203 0.7279
-3.7647 89.5997 7.8459 0.6976
-15.2913 93.1659 8.2600 0.6845
-25.5054 87.5870 7.9812 0.6933
-15.6612 36.6278 3.4851 0.8522
-14.9681 25.8577 2.6139 0.8870
-15.5485 20.6487 2.2614 0.9014
-15.4045 16.0107 1.9438 0.9147
-15.5656 12.6908 1.7571 0.9225
-15.5735 9.8360 1.6115 0.9287
-16.7270 7.9286 1.6195 0.9284
-23.7638 7.9266 2.1917 0.9043
-39.7451 8.1092 3.5489 0.8497
-53.6164 -22.8054 5.0975 0.7914
-32.0000 -18.4430 3.2316 0.8622
-30.4912 -22.8698 3.3346 0.8581
-24.0876 -23.0882 2.9191 0.8746
-18.7420 -22.8992 2.5889 0.8880
-18.6148 -29.3502 3.0407 0.8697
-19.0146 -39.9201 3.8685 0.8373
-19.0329 -56.7034 5.2329 0.7865
-19.0294 -92.3773 8.2517 0.6847
1.5954 -41.7263 3.6532 0.8456
21.5955 -75.2169 6.8465 0.7304
19.9668 -47.1904 4.4830 0.8140
19.9831 -34.8239 3.5127 0.8511
19.7998 -26.5022 2.8943 0.8756
23.8887 -25.0172 3.0263 0.8703
22.2855 -18.3100 2.5234 0.8906
32.3857 -20.6260 3.3592 0.8571
55.4469 -26.5391 5.3780 0.7813
65.2149 -22.0269 6.0222 0.7585
77.5791 -16.1337 6.9325 0.7275
65.1152 10.3087 5.7678 0.7674
28.4252 8.1030 2.5860 0.8881
22.7098 9.5583 2.1557 0.9058
22.2070 12.6875 2.2376 0.9024
21.2033 15.7787 2.3123 0.8993
19.8966 18.9274 2.4025 0.8956
20.8479 25.2767 2.8666 0.8767
20.8683 32.6301 3.3887 0.8560
2.5064 7.3749 0.6815 0.9692
16.5237 78.7086 7.0362 0.7240
6.8077 78.7356 6.9142 0.7281
-3.1000 89.9811 7.8770 0.6966
-14.5922 93.3120 8.2630 0.6844
-24.6389 87.0561 7.9156 0.6954
-15.5352 37.1061 3.5194 0.8508
-15.2069 26.7338 2.6908 0.8838
-15.5476 20.9754 2.2843 0.9005
-15.4038 16.2540 1.9592 0.9140
-15.4865 12.8222 1.7590 0.9224
-15.5731 10.0011 1.6192 0.9284
-16.3588 7.9060 1.5896 0.9296
-23.1744 7.9250 2.1428 0.9063
-37.5625 7.9599 3.3593 0.8571
-54.6811 -22.7718 5.1822 0.7883
-41.0764 -23.2626 4.1300 0.8273
-30.9742 -22.8684 3.3685 0.8568
-24.2384 -22.8839 2.9163 0.8747
-19.0320 -22.8984 2.6050 0.8873
-18.6134 -28.8636 3.0048 0.8712
-19.1796 -39.4948 3.8412 0.8384
-19.0747 -55.4362 5.1291 0.7903
-19.0231 -88.9412 7.9573 0.6941
1.2704 -41.4172 3.6252 0.8467
6.4976 -42.6033 3.7704 0.8411
21.3834 -76.6580 6.9627 0.7265
19.7638 -47.7118 4.5182 0.8127
19.9994 -35.4704 3.5625 0.8492
19.8254 -26.9589 2.9277 0.8743
23.5290 -25.0162 3.0046 0.8712
22.0879 -18.4292 2.5167 0.8909
34.6790 -22.4566 3.6146 0.8471
55.9590 -27.3057 5.4475 0.7788
67.7537 -23.4562 6.2729 0.7498
70.9118 -15.3070 6.3469 0.7473
65.1912 9.8165 5.7678 0.7674
28.4856 7.8880 2.5860 0.8881
22.7092 9.3567 2.1488 0.9061
22.1801 12.4507 2.2253 0.9029
21.5399 15.7778 2.3360 0.8983
19.8958 18.6422 2.3854 0.8963
20.8468 24.8899 2.8405 0.8778
20.8366 32.0446 3.3441 0.8577
2.5613 7.3535 0.6813 0.9692
17.1455 78.7069 7.0474 0.7237
7.4072 78.7340 6.9187 0.7279
-2.3870 88.7719 7.7693 0.7001
-13.6174 91.6071 8.1027 0.6894
-24.0211 87.3873 7.9290 0.6950
-15.5007 37.8235 3.5762 0.8486
-15.1508 27.1100 2.7171 0.8828
-15.5466 21.3088 2.3077 0.8995
-15.4344 16.5346 1.9789 0.9132
-15.5645 13.0863 1.7791 0.9216
-15.5726 10.1678 1.6271 0.9280
-16.0465 7.9052 1.5650 0.9307
-22.1733 7.7703 2.0556 0.9100
-36.1942 7.9561 3.2422 0.8617
-56.7656 -23.1382 5.3631 0.7818
-41.5851 -23.1375 4.1635 0.8261
-31.4671 -22.8671 3.4032 0.8554
-24.6071 -22.8829 2.9398 0.8738
-19.3257 -22.8976 2.6214 0.8866
-18.6542 -28.4523 2.9766 0.8723
-19.4039 -39.2002 3.8267 0.8389
-19.0094 -53.9188 5.0019 0.7949
-19.0159 -85.7353 7.6832 0.7028
0.9785 -42.3366 3.7050 0.8436
5.9474 -41.0767 3.6312 0.8465
21.7650 -80.3674 7.2845 0.7158
20.1050 -49.5919 4.6817 0.8066
20.2196 -36.5029 3.6508 0.8457
19.8256 -27.3903 2.9582 0.8730
23.1793 -25.0204 2.9840 0.8720
21.9727 -18.6163 2.5196 0.8908
31.7567 -20.9065 3.3264 0.8584
55.3020 -27.5043 5.4037 0.7804
67.8226 -24.0553 6.2959 0.7491
67.2053 -15.0392 6.0251 0.7584
65.2635 9.3237 5.7678 0.7674
28.5444 7.6726 2.5860 0.8881
22.7087 9.1564 2.1422 0.9064
22.1858 12.2345 2.2166 0.9033
21.8838 15.7768 2.3603 0.8973
19.8950 18.3612 2.3686 0.8970
20.8458 24.5101 2.8150 0.8788
20.8654 31.5644 3.3104 0.8591
2.6335 7.3808 0.6857 0.9690
17.7864 78.7823 7.0660 0.7230
8.0303 78.9553 6.9433 0.7271
-1.7288 89.4342 7.8259 0.6983
-12.6771 89.9487 7.9473 0.6944
-22.7682 85.3473 7.7281 0.7014
-31.5506 78.6768 7.4162 0.7115
-15.0178 27.3554 2.7302 0.8822
-15.5457 21.6491 2.3318 0.8985
-15.4337 16.7864 1.9950 0.9125
-15.5639 13.2878 1.7904 0.9211
-15.5721 10.3361 1.6352 0.9277
-15.7434 7.9043 1.5412 0.9317
-21.7320 7.8005 2.0201 0.9115
-34.9401 7.9576 3.1351 0.8660
-58.0105 -23.1361 5.4640 0.7782
-41.7875 -22.8384 4.1663 0.8260
-41.5750 -29.7352 4.4719 0.8145
-24.9818 -22.8818 2.9639 0.8728
-19.6233 -22.8967 2.6382 0.8860
-18.8121 -28.2258 2.9677 0.8727
-19.8540 -39.3588 3.8567 0.8378
-18.6770 -51.7264 4.8115 0.8019
-18.2758 -79.5507 7.1411 0.7206
0.6549 -42.1190 3.6854 0.8444
5.6562 -41.2607 3.6436 0.8460
21.7270 -82.6980 7.4807 0.7094
19.9581 -50.3181 4.7359 0.8046
20.0291 -36.8124 3.6665 0.8451
19.8144 -27.8149 2.9878 0.8719
22.9102 -25.1080 2.9737 0.8724
21.8978 -18.8389 2.5272 0.8905
31.6553 -21.1842 3.3324 0.8582
55.4943 -28.1249 5.4430 0.7790
65.6696 -23.8517 6.1126 0.7554
66.6307 -15.4401 5.9839 0.7599
65.3321 8.8304 5.7678 0.7674
28.6015 7.4567 2.5860 0.8881
22.7081 8.9574 2.1357 0.9066
22.1919 12.0200 2.2080 0.9036
22.2346 15.7759 2.3852 0.8963
19.8942 18.0841 2.3522 0.8977
20.8098 24.0965 2.7855 0.8800
20.8639 31.0498 3.2728 0.8605
28.6593 78.4433 7.3066 0.7151
18.3946 78.7034 7.0712 0.7229
8.6089 78.7306 6.9291 0.7276
-1.0491 89.1029 7.7960 0.6992
-11.4639 86.0399 7.5940 0.7057
-21.0962 81.5483 7.3694 0.7130
-31.5476 80.4227 7.5581 0.7069
-15.0165 27.8496 2.7681 0.8807
-15.5447 21.9967 2.3565 0.8975
-15.4330 17.0422 2.0115 0.9118
-15.4657 13.4072 1.7907 0.9211
-15.5717 10.5062 1.6434 0.9273
-15.5787 7.9695 1.5310 0.9321
-21.2224 7.7991 1.9781 0.9132
-33.7460 7.9543 3.0333 0.8700
-58.8314 -22.9499 5.5248 0.7760
-42.5442 -22.8363 4.2244 0.8238
-33.6038 -23.6523 3.5952 0.8479
-25.3663 -22.8840 2.9889 0.8718
-20.1701 -23.1782 2.6881 0.8839
-18.8009 -27.7524 2.9327 0.8741
-19.5121 -37.9650 3.7345 0.8425
-19.0185 -51.4519 4.7991 0.8023
-18.6626 -78.5114 7.0602 0.7232
0.3431 -42.9145 3.7547 0.8417
5.6635 -43.7691 3.8612 0.8376
20.0666 -51.7284 4.8542 0.8003
19.9145 -37.2697 3.6970 0.8439
19.8030 -28.2482 3.0182 0.8706
22.5700 -25.1136 2.9541 0.8732
22.0135 -19.2298 2.5573 0.8893
31.7519 -21.5979 3.3597 0.8571
54.7051 -28.2464 5.3864 0.7810
65.3304 -24.2888 6.0979 0.7559
65.9533 -15.8094 5.9336 0.7616
65.3969 8.3365 5.7678 0.7674
28.6570 7.2404 2.5860 0.8881
22.9812 8.8649 2.1550 0.9058
22.1981 11.8073 2.1997 0.9040
15.6647 10.9375 1.6715 0.9262
19.8935 17.8108 2.3361 0.8983
19.9542 22.7559 2.6479 0.8856
20.8626 30.5466 3.2363 0.8620
29.3085 78.3780 7.3209 0.7146
18.9511 78.4068 7.0572 0.7233
9.2111 78.7289 6.9349 0.7274
-0.3775 89.4882 7.8293 0.6981
-10.6178 84.5650 7.4566 0.7102
-20.1079 80.2244 7.2358 0.7174
-16.3535 42.6339 3.9950 0.8325
-15.6575 29.5711 2.9274 0.8743
-15.5437 22.3517 2.3819 0.8964
-15.4323 17.3024 2.0284 0.9111
-10.5683 9.3025 1.2318 0.9450
-15.5712 10.6780 1.6518 0.9270
-15.5783 8.1184 1.5369 0.9319
-20.8004 7.8228 1.9442 0.9146
-32.6269 7.9512 2.9380 0.8739
-59.2652 -22.6047 5.5494 0.7752
-58.8245 -31.0047 5.8176 0.7657
-42.4336 -29.3904 4.5159 0.8128
-25.7539 -22.8830 3.0141 0.8708
-20.4739 -23.1713 2.7052 0.8832
-18.8370 -27.3583 2.9060 0.8751
-18.6321 -35.5888 3.5145 0.8510
-19.1040 -50.5067 4.7243 0.8051
-18.9907 -77.2917 6.9633 0.7265
0.0183 -41.6021 3.6397 0.8462
4.8812 -40.1015 3.5343 0.8503
19.9518 -52.6077 4.9225 0.7978
19.7916 -37.7229 3.7270 0.8428
19.7912 -28.6902 3.0494 0.8694
22.2308 -25.1153 2.9344 0.8740
22.3059 -19.7845 2.6085 0.8872
38.2029 -26.4103 4.0633 0.8299
54.3868 -28.6048 5.3762 0.7813
65.2833 -24.8349 6.1109 0.7554
64.3594 -15.9424 5.8009 0.7663
67.9540 8.1410 5.9877 0.7597
28.7109 7.0237 2.5860 0.8881
23.5047 8.8635 2.1977 0.9041
22.1773 11.5820 2.1889 0.9044
22.7266 15.6141 2.4124 0.8952
19.8927 17.5411 2.3204 0.8990
19.9270 22.3816 2.6218 0.8866
20.8612 30.0543 3.2008 0.8634
30.1415 78.7861 7.3801 0.7127
19.6528 78.6999 7.0968 0.7220
9.8150 78.7273 6.9411 0.7272
0.2999 89.7744 7.8543 0.6973
-9.9351 84.2800 7.4246 0.7112
-19.5435 80.5482 7.2515 0.7169
-16.3482 43.6027 4.0741 0.8295
-15.5229 29.8608 2.9444 0.8736
-15.5427 22.7146 2.4080 0.8954
-15.5517 17.7040 2.0616 0.9097
-10.4739 9.3608 1.2290 0.9452
-15.5707 10.8516 1.6604 0.9266
-15.5779 8.2684 1.5430 0.9316
-20.5289 7.8984 1.9244 0.9155
-32.2452 8.1170 2.9091 0.8750
-45.5949 -23.5931 4.4914 0.8137
-34.9262 -23.8017 3.6977 0.8439
-26.3107 -23.0244 3.0588 0.8690
-20.7817 -23.1644 2.7227 0.8825
-19.1560 -27.3759 2.9232 0.8744
-18.6303 -34.9400 3.4642 0.8530
-19.2831 -49.8377 4.6752 0.8069
-18.8624 -74.3397 6.7100 0.7349
-0.2969 -41.7282 3.6508 0.8457
2.6098 -22.8814 2.0148 0.9117
20.1103 -54.2591 5.0626 0.7927
20.2120 -39.2424 3.8619 0.8376
15.7890 -23.2624 2.4597 0.8933
21.8788 -25.0973 2.9129 0.8749
23.5724 -21.2284 2.7753 0.8804
26.4051 -18.5508 2.8233 0.8785
55.4845 -29.7197 5.5068 0.7767
65.2766 -25.3981 6.1280 0.7548
64.1007 -16.3936 5.7886 0.7667
58.9972 6.6159 5.1939 0.7879
29.2374 6.9187 2.6286 0.8864
24.0093 8.8470 2.2386 0.9024
22.1562 11.3589 2.1783 0.9049
22.4483 15.1744 2.3706 0.8969
19.8920 17.2749 2.3050 0.8996
19.9051 22.0196 2.5969 0.8876
20.8248 29.5230 3.1608 0.8650
30.8255 78.7842 7.4015 0.7120
20.3309 78.8743 7.1262 0.7210
10.4486 78.9486 6.9673 0.7263
0.9595 88.0218 7.7013 0.7023
-9.3288 84.6278 7.4488 0.7104
-18.6496 79.4813 7.1426 0.7205
-16.3516 44.6355 4.1589 0.8262
-15.5213 30.4168 2.9876 0.8719
-15.4191 22.9035 2.4156 0.8951
-15.5559 17.9808 2.0801 0.9089
-15.4596 14.0283 1.8264 0.9196
-15.5702 11.0268 1.6692 0.9263
-15.5775 8.4198 1.5492 0.9314
-20.1208 7.9165 1.8917 0.9168
-30.5238 7.9293 2.7591 0.8811
19.9800 -31.4276 1.9517 0.8614
20.9231 -25.5078 1.7290 0.8762
26.6099 -25.4508 1.9297 0.8629
33.8606 -25.3399 2.2165 0.8442
61.0842 -35.1179 3.6926 0.7541
58.9274 -24.9892 3.3545 0.7738
64.1648 -18.4784 3.4994 0.7653
33.8427 6.9429 1.8106 0.8708
26.4529 8.8553 1.4620 0.8943
20.4151 9.7038 1.1846 0.9134
20.4240 12.9304 1.2669 0.9077
20.7952 16.9919 1.4074 0.8980
22.0267 22.9430 1.6668 0.8804
21.7068 28.8919 1.8939 0.8652
33.5331 78.6613 4.4814 0.7100
22.8786 78.8840 4.3045 0.7197
12.8643 78.9119 4.1902 0.7260
3.4273 83.7200 4.3912 0.7149
-7.7311 96.7094 5.0845 0.6780
-16.3602 80.5186 4.3060 0.7196
-25.0589 75.3296 4.1606 0.7276
-12.0750 25.5277 1.4800 0.8930
-14.9386 23.6949 1.4680 0.8939
-15.6075 19.1747 1.2957 0.9057
-15.4572 14.8960 1.1250 0.9176
-15.7435 11.8748 1.0335 0.9241
-15.7483 9.1331 0.9541 0.9297
-18.4628 7.9119 1.0527 0.9227
-27.2812 7.9682 1.4895 0.8924
-68.6579 -13.8154 3.6703 0.7554
-48.4799 -22.8197 2.8082 0.8068
-36.4011 -22.8533 2.2525 0.8418
-29.1911 -23.6690 1.9695 0.8603
-23.1719 -23.9541 1.7466 0.8750
-18.8732 -24.9238 1.6384 0.8823
-19.5073 -33.4905 2.0312 0.8562
-19.3408 -44.8983 2.5621 0.8222
-18.7101 -63.6119 3.4749 0.7668
4.7470 -62.3452 3.2768 0.7785
21.5708 -65.6711 3.6226 0.7582
19.8501 -42.3786 2.4525 0.8291
19.9759 -31.9519 1.9748 0.8599
20.4997 -25.3803 1.7098 0.8775
26.2095 -25.4496 1.9146 0.8639
33.3307 -25.3385 2.1942 0.8456
60.9702 -35.6679 3.7019 0.7536
60.7859 -26.3209 3.4715 0.7670
65.0618 -19.2702 3.5562 0.7620
33.8942 6.6870 1.8106 0.8708
27.1265 8.8534 1.4954 0.8920
20.4146 9.5152 1.1804 0.9137
20.4234 12.7149 1.2608 0.9081
20.7945 16.7309 1.3987 0.8986
22.3613 22.9421 1.6790 0.8796
21.5761 28.2706 1.8638 0.8672
34.2368 78.6593 4.4959 0.7092
19.4173 65.1067 3.5606 0.7618
13.4439 78.7172 4.1851 0.7262
4.0117 82.7012 4.3393 0.7177
-7.0008 96.7737 5.0849 0.6780
-24.5273 75.6345 4.1671 0.7273
-12.0736 26.0318 1.5039 0.8914
-14.6891 23.6942 1.4610 0.8943
-15.6067 19.4724 1.3078 0.9049
-15.5586 15.2221 1.1407 0.9165
-15.7430 12.0621 1.0394 0.9236
-15.7506 9.2942 0.9585 0.9294
-18.0818 7.9108 1.0343 0.9240
-26.6053 7.9894 1.4558 0.8947
-68.6811 -13.2811 3.6661 0.7556
-51.9255 -23.9641 2.9971 0.7953
-37.0166 -22.8516 2.2798 0.8401
-29.1710 -23.2896 1.9563 0.8611
-23.1702 -23.5929 1.7330 0.8759
-18.8797 -24.5448 1.6229 0.8834
-19.8381 -33.4743 2.0392 0.8557
-19.7442 -44.8981 2.5705 0.8216
-19.0263 -62.9267 3.4453 0.7685
-10.1091 -57.8730 3.0789 0.7903
5.9973 -87.4932 4.5961 0.7038
21.7735 -68.0173 3.7428 0.7512
19.7959 -43.1078 2.4860 0.8270
20.0075 -32.5469 2.0022 0.8581
20.1840 -25.3794 1.6994 0.8782
25.8152 -25.4485 1.8998 0.8649
32.8113 -25.3370 2.1726 0.8470
61.5788 -36.6512 3.7556 0.7505
58.7940 -25.9877 3.3688 0.7730
65.9865 -20.0875 3.6149 0.7586
33.9437 6.4308 1.8106 0.8708
27.8317 8.8514 1.5306 0.8896
20.4140 9.3278 1.1762 0.9140
20.4228 12.5014 1.2549 0.9085
20.7937 16.4731 1.3903 0.8992
22.7010 22.9412 1.6914 0.8787
21.5779 27.8345 1.8457 0.8684
35.0176 78.8202 4.5201 0.7079
19.4254 63.3816 3.4742 0.7668
14.0204 78.5140 4.1798 0.7265
4.6132 82.2555 4.3176 0.7189
-6.1726 95.3279 5.0064 0.6821
-24.1083 76.3025 4.1937 0.7258
-12.0721 26.5525 1.5286 0.8897
-14.4421 23.6935 1.4542 0.8948
-15.5511 19.7063 1.3156 0.9043
-15.5579 15.4533 1.1492 0.9159
-15.5672 12.1152 1.0338 0.9240
-15.7502 9.4551 0.9627 0.9291
-17.7137 7.9098 1.0167 0.9252
-25.7072 7.9320 1.4099 0.8978
-44.1961 7.9784 2.3537 0.8354
-68.6749 -12.7424 3.6605 0.7560
-51.9369 -23.4949 2.9874 0.7959
-38.0936 -23.1208 2.3353 0.8365
-29.4446 -23.1458 1.9628 0.8607
-23.1505 -23.2194 1.7184 0.8769
-18.5993 -23.8059 1.5832 0.8860
-25.4797 -42.2624 2.5863 0.8206
-18.6487 -41.5522 2.3869 0.8332
-19.3431 -62.2725 3.4174 0.7701
2.6610 -43.6518 2.2919 0.8393
21.6054 -69.2910 3.8038 0.7477
19.7401 -43.8569 2.5205 0.8248
20.0060 -33.1024 2.0270 0.8565
20.1002 -25.6697 1.7086 0.8776
25.4269 -25.4475 1.8853 0.8658
32.3019 -25.3356 2.1515 0.8484
57.9131 -35.0646 3.5481 0.7625
58.1950 -26.2503 3.3458 0.7744
66.7896 -20.8847 3.6674 0.7556
33.9914 6.1742 1.8106 0.8708
28.5709 8.8494 1.5675 0.8871
22.7115 10.1709 1.3042 0.9051
20.4222 12.2899 1.2491 0.9089
20.7930 16.2183 1.3820 0.8998
23.0456 22.9402 1.7041 0.8779
21.5485 27.3670 1.8255 0.8698
39.4282 64.8431 3.9772 0.7379
35.6501 78.6373 4.5249 0.7076
24.7679 78.6857 4.3232 0.7186
14.6707 78.7137 4.1962 0.7256
5.1615 81.0718 4.2574 0.7222
-5.3823 94.1510 4.9423 0.6854
-15.3582 34.4691 1.9776 0.8597
-14.1972 23.6928 1.4475 0.8953
-15.5502 20.0143 1.3283 0.9035
-15.5573 15.6879 1.1579 0.9153
-15.5667 12.3048 1.0399 0.9236
-15.7056 9.5905 0.9644 0.9289
-17.3580 7.9088 0.9997 0.9264
-25.0283 7.9301 1.3759 0.9002
-42.3355 7.9732 2.2577 0.8415
-69.0626 4.5279 3.6272 0.7579
-68.6714 -12.2055 3.6553 0.7563
-51.9078 -23.0110 2.9757 0.7966
-40.5906 -24.2186 2.4771 0.8275
-29.9174 -23.1540 1.9826 0.8594
-23.4417 -23.1588 1.7269 0.8764
-18.5983 -23.4374 1.5680 0.8871
-18.8929 -30.8083 1.8940 0.8652
-18.6464 -40.7207 2.3472 0.8358
-18.6962 -58.6223 3.2247 0.7816
2.8885 -54.1152 2.8401 0.8049
21.4542 -70.6805 3.8711 0.7439
15.7061 -35.6111 2.0398 0.8556
20.0044 -33.6719 2.0526 0.8548
20.2212 -26.2301 1.7357 0.8758
24.9152 -25.3151 1.8615 0.8674
31.8024 -25.3342 2.1309 0.8497
33.5702 -20.6740 2.0662 0.8539
56.5203 -26.0105 3.2607 0.7794
66.9631 -21.4957 3.6858 0.7545
79.1056 -15.2081 4.2217 0.7242
34.4308 5.9856 1.8315 0.8694
29.3466 8.8473 1.6064 0.8845
22.7110 9.9654 1.2998 0.9054
20.4217 12.0803 1.2435 0.9093
20.7923 15.9666 1.3739 0.9003
23.3955 22.9392 1.7172 0.8770
21.4771 26.8562 1.8022 0.8713
39.4272 63.7515 3.9284 0.7406
36.3531 78.6035 4.5387 0.7069
25.4846 78.8768 4.3442 0.7175
12.6770 65.2754 3.4849 0.7662
2.8465 39.9474 2.0989 0.8518
-4.6015 92.7899 4.8689 0.6893
-16.2858 94.7400 5.0379 0.6804
-9.7577 32.5893 1.7828 0.8726
-15.3562 35.1771 2.0116 0.8575
-13.9547 23.6921 1.4410 0.8957
-15.5494 20.3284 1.3413 0.9026
-15.5566 15.9261 1.1668 0.9147
-15.5661 12.4966 1.0461 0.9232
-15.5740 9.6725 0.9608 0.9292
-17.2860 8.0342 0.9990 0.9265
-24.7858 8.0598 1.3659 0.9009
-40.5238 7.9495 2.1642 0.8475
-68.6533 -11.6679 3.6496 0.7566
-52.9205 -22.9831 3.0237 0.7937
-40.6097 -23.8158 2.4672 0.8281
-30.1665 -22.9845 1.9876 0.8591
-23.8052 -23.1651 1.7408 0.8754
-18.5973 -23.0759 1.5532 0.8881
-18.6161 -29.8486 1.8436 0.8686
-18.7650 -40.1748 2.3238 0.8373
-18.7532 -57.3020 3.1598 0.7854
-19.1404 -96.6050 5.1613 0.6740
1.9335 -42.2125 2.2146 0.8443
21.5769 -73.0669 3.9927 0.7370
19.6230 -45.4183 2.5929 0.8202
20.0028 -34.2559 2.0789 0.8531
20.2201 -26.6426 1.7529 0.8746
24.5405 -25.3140 1.8477 0.8683
31.3124 -25.3329 2.1108 0.8510
56.6672 -35.4914 3.5042 0.7650
56.0924 -26.3289 3.2474 0.7802
67.4269 -22.2079 3.7204 0.7525
35.6471 5.9199 1.8938 0.8652
29.6773 8.7029 1.6208 0.8835
22.7104 9.7611 1.2955 0.9057
20.4211 11.8726 1.2380 0.9097
20.8735 15.7797 1.3713 0.9005
23.7510 22.9382 1.7305 0.8761
21.4131 26.3654 1.7801 0.8728
39.4247 62.6838 3.8808 0.7433
2.4691 7.4492 0.4113 0.9691
15.9042 78.7103 4.2084 0.7250
6.2182 78.8548 4.1454 0.7285
-3.7824 90.0203 4.7219 0.6971
-15.3118 93.2909 4.9546 0.6848
-15.3542 35.9099 2.0468 0.8552
-13.7141 23.6915 1.4346 0.8961
-15.5485 20.6487 1.3546 0.9016
-15.5559 16.1681 1.1758 0.9141
-15.5656 12.6908 1.0525 0.9227
-15.5735 9.8360 0.9653 0.9289
-17.0539 8.0836 0.9891 0.9272
-23.7638 7.9266 1.3129 0.9045
-38.2792 7.8101 2.0475 0.8551
-68.6690 -11.1373 3.6458 0.7568
-53.6164 -22.8054 3.0536 0.7919
-31.9961 -18.4408 1.9354 0.8625
-30.4912 -22.8698 1.9975 0.8584
-24.1504 -23.1483 1.7532 0.8746
-18.7420 -22.8992 1.5508 0.8882
-18.6148 -29.3502 1.8215 0.8700
-18.9233 -39.7284 2.3062 0.8384
-18.8584 -56.1835 3.1059 0.7887
-18.8603 -91.5561 4.8990 0.6877
1.6222 -42.4249 2.2250 0.8436
21.5895 -75.1961 4.1001 0.7310
19.5616 -46.2326 2.6309 0.8178
20.0011 -34.8553 2.1061 0.8513
20.2189 -27.0632 1.7704 0.8734
24.1712 -25.3130 1.8343 0.8692
30.8314 -25.3315 2.0912 0.8523
56.2986 -35.8558 3.4981 0.7654
56.1855 -26.8926 3.2645 0.7792
70.6591 -23.8658 3.9086 0.7418
77.0024 -16.0138 4.1219 0.7298
53.0640 8.4008 2.8156 0.8064
29.6766 8.4597 1.6172 0.8837
22.7098 9.5583 1.2913 0.9060
20.4205 11.6668 1.2325 0.9101
21.2034 15.7787 1.3851 0.8995
24.1117 22.9372 1.7441 0.8752
21.3578 25.8949 1.7591 0.8742
2.5064 7.3748 0.4082 0.9693
16.5237 78.7086 4.2149 0.7246
6.8077 78.7356 4.1417 0.7287
-3.1000 89.9811 4.7185 0.6972
-10.0580 64.3174 3.4117 0.7705
-15.5030 37.0292 2.1038 0.8515
-13.4759 23.6908 1.4284 0.8966
-15.5476 20.9754 1.3683 0.9007
-15.6101 16.4716 1.1893 0.9131
-15.4865 12.8222 1.0537 0.9226
-15.5731 10.0011 0.9700 0.9285
-16.3588 7.9060 0.9522 0.9298
-23.1744 7.9250 1.2836 0.9066
-36.9866 7.8379 1.9814 0.8595
-68.6281 -10.5994 3.6393 0.7572
-55.0991 -22.9458 3.1280 0.7874
-40.8154 -23.1148 2.4582 0.8287
-30.9741 -22.8684 2.0177 0.8571
-24.2384 -22.8839 1.7470 0.8750
-19.0320 -22.8984 1.5604 0.8876
-18.6134 -28.8636 1.7999 0.8715
-19.0246 -39.1755 2.2824 0.8399
-19.3339 -56.1892 3.1142 0.7882
-19.2524 -90.0131 4.8241 0.6916
2.5076 -81.7545 4.2866 0.7206
21.3834 -76.6580 4.1708 0.7270
19.4981 -47.0705 2.6701 0.8154
19.9994 -35.4704 2.1340 0.8495
20.0394 -27.2498 1.7727 0.8733
23.8073 -25.3120 1.8211 0.8701
24.1272 -20.1306 1.6468 0.8817
42.4784 -27.5071 2.6522 0.8165
55.4818 -27.0729 3.2354 0.7809
69.4424 -24.0408 3.8512 0.7450
77.3078 -16.6876 4.1448 0.7285
53.0628 7.9902 2.8123 0.8066
23.5846 6.5308 1.2825 0.9066
22.7093 9.3567 1.2872 0.9063
20.4200 11.4627 1.2272 0.9105
20.4297 14.9645 1.3272 0.9035
24.1701 22.6473 1.7359 0.8758
21.3187 25.4533 1.7400 0.8755
2.5613 7.3535 0.4081 0.9693
17.1455 78.7068 4.2216 0.7242
7.4072 78.7339 4.1445 0.7285
-2.3864 88.7474 4.6527 0.7007
-13.6717 91.9726 4.8730 0.6890
-24.3191 88.4715 4.8086 0.6925
-15.5007 37.8235 2.1423 0.8490
-13.2396 23.6901 1.4223 0.8970
-15.7216 21.5486 1.3979 0.8987
-15.6094 16.7221 1.1988 0.9124
-15.5645 13.0863 1.0657 0.9218
-15.5726 10.1678 0.9747 0.9282
-16.0465 7.9052 0.9375 0.9309
-22.6101 7.9234 1.2556 0.9085
-36.1941 7.9561 1.9421 0.8621
-58.0912 -23.6785 3.2876 0.7778
-41.5676 -23.1277 2.4930 0.8265
-31.4671 -22.8671 2.0386 0.8557
-24.6071 -22.8829 1.7610 0.8741
-19.3257 -22.8976 1.5703 0.8869
-18.6542 -28.4523 1.7830 0.8726
-19.4005 -39.1933 2.2919 0.8393
-18.8756 -53.5394 2.9752 0.7966
-19.0406 -85.8466 4.6084 0.7031
1.8599 -80.4745 4.2186 0.7244
21.7520 -80.3194 4.3610 0.7165
19.4521 -47.9815 2.7134 0.8127
19.9976 -36.1021 2.1629 0.8476
20.0211 -27.6604 1.7895 0.8722
23.4485 -25.3110 1.8082 0.8709
29.8954 -25.3289 2.0535 0.8547
42.1936 -27.7774 2.6474 0.8168
55.3676 -27.5370 3.2408 0.7806
68.1141 -24.1587 3.7876 0.7487
77.6121 -17.3680 4.1681 0.7272
53.0617 7.5805 2.8091 0.8068
24.2896 6.5289 1.3181 0.9042
22.7087 9.1564 1.2832 0.9066
20.4194 11.2604 1.2221 0.9108
20.4290 14.7281 1.3199 0.9040
24.4196 22.5370 1.7415 0.8754
21.2431 24.9772 1.7184 0.8769
2.6335 7.3807 0.4107 0.9691
17.7944 78.8174 4.2346 0.7235
8.0263 78.9166 4.1572 0.7278
-1.7288 89.4342 4.6879 0.6989
-12.7312 90.3331 4.7810 0.6939
-23.4119 87.7600 4.7602 0.6950
-31.5505 78.6766 4.4424 0.7121
-13.0053 23.6895 1.4163 0.8974
-15.7206 21.8927 1.4125 0.8977
-15.6087 16.9767 1.2086 0.9118
-15.5639 13.2878 1.0725 0.9213
-15.5721 10.3361 0.9795 0.9279
-15.7434 7.9043 0.9232 0.9319
-22.2245 7.9773 1.2375 0.9098
-34.9401 7.9576 1.8780 0.8663
-58.4533 -23.3127 3.2981 0.7772
-41.7875 -22.8383 2.4957 0.8263
-32.3492 -23.1367 2.0843 0.8527
-24.9818 -22.8818 1.7754 0.8731
-19.6233 -22.8967 1.5804 0.8862
-18.8970 -28.3532 1.7857 0.8724
-19.7676 -39.1875 2.3002 0.8388
-18.6770 -51.7264 2.8821 0.8023
-19.3944 -84.4194 4.5395 0.7068
1.2837 -82.5550 4.3270 0.7184
21.7312 -82.7141 4.4820 0.7100
19.4492 -49.0350 2.7646 0.8095
19.9828 -36.7272 2.1912 0.8458
20.0199 -28.1033 1.8083 0.8709
23.0945 -25.3100 1.7956 0.8718
29.4401 -25.3277 2.0353 0.8559
38.6602 -25.8720 2.4378 0.8300
55.0163 -27.8827 3.2324 0.7811
65.6696 -23.8517 3.6616 0.7559
77.4090 -17.9377 4.1643 0.7274
53.0606 7.1717 2.8061 0.8070
25.0348 6.5268 1.3559 0.9016
22.7082 8.9574 1.2793 0.9069
20.4188 11.0596 1.2170 0.9112
20.4284 14.4943 1.3127 0.9045
24.4187 22.1969 1.7294 0.8762
20.8098 24.0965 1.6686 0.8803
28.6714 78.4760 4.3786 0.7156
18.3946 78.7034 4.2358 0.7234
8.6089 78.7306 4.1507 0.7282
-1.0491 89.1029 4.6700 0.6998
-11.8256 88.7543 4.6925 0.6986
-22.3432 86.3688 4.6754 0.6995
-31.7705 80.9909 4.5594 0.7058
-12.7730 23.6888 1.4105 0.8978
-15.6257 22.1113 1.4190 0.8972
-15.5531 17.1749 1.2143 0.9114
-15.4657 13.4072 1.0727 0.9213
-15.5717 10.5062 0.9845 0.9275
-15.5787 7.9695 0.9171 0.9323
-21.7034 7.9758 1.2118 0.9115
-33.7459 7.9543 1.8170 0.8703
-59.0166 -23.0221 3.3199 0.7759
-42.5442 -22.8363 2.5305 0.8241
-41.7588 -29.3923 2.6762 0.8150
-25.3663 -22.8840 1.7904 0.8721
-20.1674 -23.1750 1.6100 0.8842
-18.8862 -27.8783 1.7647 0.8738
-18.9051 -36.7839 2.1675 0.8473
-18.8690 -51.0474 2.8522 0.8041
