ply
format ascii 1.0
element vertex 1546
property float32 x
property float32 y
property float32 z
property float32 I
end_header
-17.2379 19.2612 -1.3547 0.9016
-17.5837 15.4242 -1.2258 0.9106
-18.9413 12.9407 -1.2022 0.9122
-24.9710 12.9574 -1.4744 0.8934
-27.6923 10.3583 -1.5495 0.8883
-28.7381 6.9484 -1.5495 0.8883
-32.2501 3.7750 -1.7017 0.8780
-19.3031 -0.0808 -1.0116 0.9256
-32.2174 -4.0447 -1.7017 0.8780
-31.4959 -7.8948 -1.7017 0.8780
-30.3161 -11.6299 -1.7017 0.8780
-26.1286 -13.8366 -1.5495 0.8883
-24.2724 -16.8822 -1.5495 0.8883
-20.6100 -18.3863 -1.4475 0.8953
-13.6026 -15.4575 -1.0791 0.9208
-16.7174 -24.3862 -1.5495 0.8883
-13.6593 -26.2218 -1.5495 0.8883
-11.3331 -30.1518 -1.6881 0.8790
-7.6812 -31.5487 -1.7017 0.8780
-3.8264 -32.2441 -1.7017 0.8780
0.0770 -29.7115 -1.5571 0.8878
3.9934 -32.2238 -1.7017 0.8780
7.8443 -31.5085 -1.7017 0.8780
11.5815 -30.3346 -1.7017 0.8780
13.7950 -26.1507 -1.5495 0.8883
10.2456 -14.7806 -0.9425 0.9305
10.3423 -11.6303 -0.8157 0.9396
22.1646 -19.5675 -1.5495 0.8883
21.7895 -14.9884 -1.3860 0.8995
26.2000 -13.7011 -1.5495 0.8883
27.0939 -10.2330 -1.5178 0.8905
31.5364 -7.7315 -1.7017 0.8780
32.2379 -3.8778 -1.7017 0.8780
32.4703 0.0324 -1.7017 0.8780
32.2301 3.9420 -1.7017 0.8780
28.7017 7.0972 -1.5495 0.8883
24.0590 9.1416 -1.3488 0.9020
19.7509 10.3787 -1.1693 0.9145
17.7074 12.2328 -1.1279 0.9174
16.5915 14.7067 -1.1619 0.9150
16.2669 18.3668 -1.2858 0.9064
16.3013 23.6176 -1.5039 0.8914
13.7428 26.1781 -1.5495 0.8883
11.5210 30.3577 -1.7017 0.8780
4.5604 18.4744 -0.9973 0.9266
3.9291 32.2317 -1.7017 0.8780
0.0194 32.4703 -1.7017 0.8780
-3.8907 32.2364 -1.7017 0.8780
-7.7441 31.5333 -1.7017 0.8780
-11.3347 29.9745 -1.6795 0.8795
-13.7118 26.1944 -1.5495 0.8883
-16.7662 24.3527 -1.5495 0.8883
-12.5913 14.2507 -0.9966 0.9267
-17.5832 15.6229 -1.2327 0.9101
-18.6838 12.9400 -1.1911 0.9130
-24.5848 12.9563 -1.4564 0.8947
-27.6257 10.5346 -1.5495 0.8883
-28.6932 7.1315 -1.5495 0.8883
-32.2254 3.9805 -1.7017 0.8780
-19.3960 0.0425 -1.0165 0.9253
-32.2425 -3.8393 -1.7017 0.8780
-31.5456 -7.6938 -1.7017 0.8780
-30.3895 -11.4366 -1.7017 0.8780
-26.2162 -13.6700 -1.5495 0.8883
13.7985 11.1814 -1.5538 0.9312
13.1174 13.5527 -1.6501 0.9271
11.7459 15.5034 -1.7017 0.9249
9.7936 16.8049 -1.7017 0.9249
7.6988 17.8620 -1.7017 0.9249
5.4919 18.6590 -1.7017 0.9249
3.2051 19.1846 -1.7017 0.9249
0.5514 12.2916 -1.0765 0.9518
-1.4744 19.3945 -1.7017 0.9249
-3.7991 19.0758 -1.7017 0.9249
-6.0685 18.4796 -1.7017 0.9249
-8.2495 17.6144 -1.7017 0.9249
-10.3105 16.4928 -1.7017 0.9249
-11.5454 14.2942 -1.6076 0.9289
-12.7065 12.3377 -1.5495 0.9314
-14.0997 10.7178 -1.5495 0.9314
-15.2877 8.9420 -1.5495 0.9314
-17.2654 7.4743 -1.6460 0.9272
-18.6503 5.5216 -1.7017 0.9249
-19.1794 3.2357 -1.7017 0.9249
-19.4295 0.9026 -1.7017 0.9249
-19.3968 -1.4435 -1.7017 0.9249
-19.0819 -3.7687 -1.7017 0.9249
-18.4892 -6.0390 -1.7017 0.9249
-17.6275 -8.2214 -1.7017 0.9249
-16.5092 -10.2843 -1.7017 0.9249
-15.1507 -12.1974 -1.7017 0.9249
-13.5717 -13.9330 -1.7017 0.9249
-11.7952 -15.4659 -1.7017 0.9249
-9.8471 -16.7737 -1.7017 0.9249
-7.7556 -17.8373 -1.7017 0.9249
-5.5513 -18.6414 -1.7017 0.9249
-3.2662 -19.1743 -1.7017 0.9249
-0.9336 -19.4280 -1.7017 0.9249
1.2926 -17.7509 -1.5571 0.9310
3.7383 -19.0878 -1.7017 0.9249
6.0096 -18.4988 -1.7017 0.9249
1.5247 -3.2827 -0.3167 0.9856
1.6745 -2.6976 -0.2778 0.9873
1.8868 -2.3514 -0.2638 0.9880
2.1871 -2.1372 -0.2675 0.9878
15.4470 -11.8199 -1.7017 0.9249
16.7579 -9.8738 -1.7017 0.9249
17.8250 -7.7840 -1.7017 0.9249
18.6326 -5.5810 -1.7017 0.9249
19.1690 -3.2968 -1.7017 0.9249
19.4265 -0.9645 -1.7017 0.9249
19.4013 1.3817 -1.7017 0.9249
19.0938 3.7079 -1.7017 0.9249
18.5084 5.9801 -1.7017 0.9249
16.8463 7.7918 -1.6239 0.9282
15.0624 9.3165 -1.5495 0.9314
13.8499 11.0775 -1.5516 0.9313
13.1407 13.4048 -1.6423 0.9274
11.8444 15.4282 -1.7017 0.9249
9.9005 16.7422 -1.7017 0.9249
7.8124 17.8125 -1.7017 0.9249
5.6107 18.6237 -1.7017 0.9249
3.3273 19.1638 -1.7017 0.9249
0.6299 12.2913 -1.0768 0.9518
-1.3508 19.4035 -1.7017 0.9249
-3.6775 19.0997 -1.7017 0.9249
-5.9506 18.5179 -1.7017 0.9249
-8.1371 17.6666 -1.7017 0.9249
-10.2052 16.5582 -1.7017 0.9249
-11.5145 14.4432 -1.6160 0.9285
-12.6276 12.4184 -1.5495 0.9314
-14.0311 10.8075 -1.5495 0.9314
-15.2304 9.0393 -1.5495 0.9314
-17.1112 7.5373 -1.6358 0.9277
-18.6147 5.6404 -1.7017 0.9249
-19.1584 3.3578 -1.7017 0.9249
-19.4234 1.0265 -1.7017 0.9249
-19.4056 -1.3199 -1.7017 0.9249
-19.1055 -3.6470 -1.7017 0.9249
-18.5273 -5.9211 -1.7017 0.9249
-17.6795 -8.1089 -1.7017 0.9249
-16.5744 -10.1789 -1.7017 0.9249
-15.2282 -12.1006 -1.7017 0.9249
-13.6602 -13.8462 -1.7017 0.9249
-11.8936 -15.3904 -1.7017 0.9249
-9.9538 -16.7106 -1.7017 0.9249
-7.8692 -17.7876 -1.7017 0.9249
-5.6700 -18.6057 -1.7017 0.9249
-3.3884 -19.1531 -1.7017 0.9249
-1.0574 -19.4217 -1.7017 0.9249
1.1794 -17.7588 -1.5571 0.9310
3.6166 -19.1113 -1.7017 0.9249
5.8916 -18.5367 -1.7017 0.9249
1.5328 -3.3559 -0.3228 0.9853
1.6637 -2.7187 -0.2789 0.9873
1.8739 -2.3660 -0.2641 0.9880
2.1666 -2.1443 -0.2667 0.9878
2.8425 -2.2039 -0.3147 0.9857
16.6947 -9.9804 -1.7017 0.9249
17.7750 -7.8975 -1.7017 0.9249
18.5966 -5.6996 -1.7017 0.9249
19.1476 -3.4189 -1.7017 0.9249
19.4200 -1.0883 -1.7017 0.9249
19.4097 1.2581 -1.7017 0.9249
19.1170 3.5861 -1.7017 0.9249
18.5461 5.8620 -1.7017 0.9249
16.9673 7.7169 -1.6308 0.9279
15.1227 9.2211 -1.5496 0.9314
13.9011 10.9739 -1.5495 0.9314
13.1639 13.2583 -1.6346 0.9277
11.9425 15.3524 -1.7017 0.9249
10.0070 16.6787 -1.7017 0.9249
7.9258 17.7624 -1.7017 0.9249
5.7293 18.5875 -1.7017 0.9249
3.4494 19.1422 -1.7017 0.9249
0.7088 12.2969 -1.0776 0.9517
-1.2272 19.4117 -1.7017 0.9249
-3.5557 19.1227 -1.7017 0.9249
-5.8325 18.5554 -1.7017 0.9249
-8.0244 17.7181 -1.7017 0.9249
-10.0995 16.6229 -1.7017 0.9249
-11.4832 14.5939 -1.6247 0.9281
-12.5482 12.4986 -1.5495 0.9314
-13.9619 10.8967 -1.5495 0.9314
-15.1725 9.1361 -1.5495 0.9314
-16.9663 7.6030 -1.6266 0.9281
-18.5784 5.7589 -1.7017 0.9249
-19.1367 3.4798 -1.7017 0.9249
-19.4164 1.1502 -1.7017 0.9249
-19.4136 -1.1962 -1.7017 0.9249
-19.1283 -3.5252 -1.7017 0.9249
-18.5647 -5.8029 -1.7017 0.9249
-17.7309 -7.9961 -1.7017 0.9249
-16.6390 -10.0730 -1.7017 0.9249
-15.3050 -12.0033 -1.7017 0.9249
-13.7482 -13.7589 -1.7017 0.9249
-11.9914 -15.3143 -1.7017 0.9249
-10.0601 -16.6468 -1.7017 0.9249
-7.9823 -17.7370 -1.7017 0.9249
-5.7885 -18.5692 -1.7017 0.9249
-3.5103 -19.1311 -1.7017 0.9249
-1.1811 -19.4146 -1.7017 0.9249
1.0662 -17.7659 -1.5571 0.9310
3.4947 -19.1339 -1.7017 0.9249
5.7733 -18.5739 -1.7017 0.9249
1.5412 -3.4320 -0.3291 0.9850
1.6527 -2.7398 -0.2799 0.9872
1.8609 -2.3806 -0.2644 0.9879
2.1462 -2.1514 -0.2659 0.9879
2.7197 -2.1366 -0.3026 0.9862
16.6307 -10.0866 -1.7017 0.9249
17.7243 -8.0106 -1.7017 0.9249
18.5599 -5.8180 -1.7017 0.9249
19.1255 -3.5408 -1.7017 0.9249
19.4127 -1.2120 -1.7017 0.9249
19.4174 1.1344 -1.7017 0.9249
19.1395 3.4642 -1.7017 0.9249
18.5831 5.7437 -1.7017 0.9249
17.0945 7.6437 -1.6383 0.9276
15.1982 9.1347 -1.5514 0.9313
13.9708 10.8853 -1.5495 0.9314
13.1867 13.1132 -1.6270 0.9280
12.0401 15.2760 -1.7017 0.9249
10.1131 16.6146 -1.7017 0.9249
8.0388 17.7115 -1.7017 0.9249
5.8476 18.5506 -1.7017 0.9249
3.5713 19.1198 -1.7017 0.9249
1.1374 17.7615 -1.5571 0.9310
-1.1034 19.4191 -1.7017 0.9249
-3.4337 19.1450 -1.7017 0.9249
-5.7141 18.5922 -1.7017 0.9249
-7.9113 17.7689 -1.7017 0.9249
-9.9934 16.6869 -1.7017 0.9249
-11.4565 14.7524 -1.6342 0.9277
-12.4683 12.5783 -1.5495 0.9314
-13.8922 10.9854 -1.5495 0.9314
-15.1139 9.2326 -1.5495 0.9314
-16.8316 7.6718 -1.6183 0.9284
-18.5413 5.8772 -1.7017 0.9249
-19.1141 3.6017 -1.7017 0.9249
-19.4087 1.2739 -1.7017 0.9249
-19.4209 -1.0725 -1.7017 0.9249
-19.1504 -3.4033 -1.7017 0.9249
-18.6013 -5.6845 -1.7017 0.9249
-17.7814 -7.8830 -1.7017 0.9249
-16.7028 -9.9668 -1.7017 0.9249
-15.3811 -11.9055 -1.7017 0.9249
-13.8356 -13.6710 -1.7017 0.9249
-12.0887 -15.2376 -1.7017 0.9249
-10.1660 -16.5823 -1.7017 0.9249
-8.0952 -17.6858 -1.7017 0.9249
-5.9067 -18.5319 -1.7017 0.9249
-3.6322 -19.1083 -1.7017 0.9249
-1.3048 -19.4067 -1.7017 0.9249
0.9530 -17.7724 -1.5571 0.9310
3.3727 -19.1558 -1.7017 0.9249
5.6548 -18.6103 -1.7017 0.9249
7.8546 -17.7940 -1.7017 0.9249
1.6417 -2.7611 -0.2810 0.9872
1.8479 -2.3952 -0.2647 0.9879
2.1258 -2.1583 -0.2650 0.9879
2.6797 -2.1329 -0.2996 0.9863
16.5661 -10.1924 -1.7017 0.9249
17.6729 -8.1234 -1.7017 0.9249
18.5225 -5.9362 -1.7017 0.9249
19.1025 -3.6626 -1.7017 0.9249
19.4045 -1.3358 -1.7017 0.9249
19.4242 1.0106 -1.7017 0.9249
19.1612 3.3422 -1.7017 0.9249
18.6193 5.6251 -1.7017 0.9249
17.2229 7.5698 -1.6459 0.9272
15.2739 9.0482 -1.5532 0.9312
14.0399 10.7960 -1.5495 0.9314
13.2094 12.9693 -1.6196 0.9284
12.1372 15.1990 -1.7017 0.9249
10.2188 16.5499 -1.7017 0.9249
8.1515 17.6599 -1.7017 0.9249
5.9657 18.5130 -1.7017 0.9249
3.6931 19.0966 -1.7017 0.9249
1.2505 17.7539 -1.5571 0.9310
-0.9796 19.4258 -1.7017 0.9249
-3.3117 19.1665 -1.7017 0.9249
-5.5955 18.6282 -1.7017 0.9249
-7.7979 17.8189 -1.7017 0.9249
-9.8868 16.7503 -1.7017 0.9249
-11.4318 14.9158 -1.6442 0.9273
-12.3879 12.6575 -1.5495 0.9314
-13.8219 11.0737 -1.5495 0.9314
-15.0548 9.3288 -1.5495 0.9314
-16.6982 7.7399 -1.6102 0.9288
-18.5035 5.9952 -1.7017 0.9249
-19.0907 3.7234 -1.7017 0.9249
-19.4002 1.3976 -1.7017 0.9249
-19.4273 -0.9487 -1.7017 0.9249
-19.1717 -3.2812 -1.7017 0.9249
-18.6371 -5.5658 -1.7017 0.9249
-17.8313 -7.7695 -1.7017 0.9249
-16.7660 -9.8602 -1.7017 0.9249
-15.4567 -11.8073 -1.7017 0.9249
-13.9225 -13.5826 -1.7017 0.9249
-12.1856 -15.1602 -1.7017 0.9249
-10.2714 -16.5172 -1.7017 0.9249
-8.2078 -17.6339 -1.7017 0.9249
-6.0247 -18.4939 -1.7017 0.9249
-3.7539 -19.0848 -1.7017 0.9249
-1.4285 -19.3979 -1.7017 0.9249
0.8352 -17.6826 -1.5488 0.9314
3.2506 -19.1769 -1.7017 0.9249
5.5361 -18.6460 -1.7017 0.9249
7.7411 -17.8437 -1.7017 0.9249
1.6322 -2.7855 -0.2825 0.9871
1.8348 -2.4098 -0.2650 0.9879
2.1056 -2.1652 -0.2642 0.9879
2.6404 -2.1292 -0.2968 0.9865
16.5008 -10.2977 -1.7017 0.9249
17.6208 -8.2358 -1.7017 0.9249
18.4843 -6.0541 -1.7017 0.9249
19.0788 -3.7843 -1.7017 0.9249
19.3956 -1.4594 -1.7017 0.9249
19.4302 0.8868 -1.7017 0.9249
19.1821 3.2200 -1.7017 0.9249
18.6548 5.5064 -1.7017 0.9249
17.3526 7.4952 -1.6537 0.9269
15.3566 8.9655 -1.5557 0.9311
14.1084 10.7063 -1.5495 0.9314
13.2351 12.8300 -1.6127 0.9287
12.2338 15.1213 -1.7017 0.9249
10.3240 16.4844 -1.7017 0.9249
8.2639 17.6076 -1.7017 0.9249
6.0836 18.4746 -1.7017 0.9249
3.8147 19.0727 -1.7017 0.9249
1.3637 17.7456 -1.5571 0.9310
-0.7831 17.7807 -1.5571 0.9310
-3.1894 19.1872 -1.7017 0.9249
-5.4767 18.6635 -1.7017 0.9249
-7.6842 17.8682 -1.7017 0.9249
-9.7799 16.8129 -1.7017 0.9249
-11.4068 15.0814 -1.6544 0.9269
-12.3070 12.7362 -1.5495 0.9314
-13.7511 11.1616 -1.5495 0.9314
-14.9950 9.4246 -1.5495 0.9314
-16.5661 7.8073 -1.6022 0.9291
-18.4649 6.1130 -1.7017 0.9249
-19.0666 3.8451 -1.7017 0.9249
-19.3909 1.5212 -1.7017 0.9249
-19.4330 -0.8248 -1.7017 0.9249
-19.1922 -3.1588 -1.7017 0.9249
-18.6722 -5.4469 -1.7017 0.9249
-17.8805 -7.6557 -1.7017 0.9249
-16.8285 -9.7531 -1.7017 0.9249
-15.5316 -11.7085 -1.7017 0.9249
-14.0088 -13.4935 -1.7017 0.9249
-12.2820 -15.0822 -1.7017 0.9249
-10.3765 -16.4514 -1.7017 0.9249
-8.3200 -17.5812 -1.7017 0.9249
-6.1424 -18.4551 -1.7017 0.9249
-3.8754 -19.0605 -1.7017 0.9249
-1.5521 -19.3884 -1.7017 0.9249
0.7214 -17.6596 -1.5463 0.9315
3.1283 -19.1973 -1.7017 0.9249
5.4172 -18.6809 -1.7017 0.9249
7.6272 -17.8926 -1.7017 0.9249
1.6226 -2.8101 -0.2839 0.9871
1.8216 -2.4245 -0.2653 0.9879
2.0854 -2.1719 -0.2634 0.9880
2.6018 -2.1257 -0.2939 0.9866
16.4349 -10.4027 -1.7017 0.9249
17.5679 -8.3480 -1.7017 0.9249
18.4453 -6.1718 -1.7017 0.9249
19.0543 -3.9058 -1.7017 0.9249
19.3860 -1.5829 -1.7017 0.9249
19.4355 0.7630 -1.7017 0.9249
19.2022 3.0977 -1.7017 0.9249
18.6895 5.3874 -1.7017 0.9249
17.4920 7.4235 -1.6625 0.9265
15.4407 8.8832 -1.5585 0.9310
14.1764 10.6162 -1.5495 0.9314
13.2688 12.6996 -1.6069 0.9289
12.3300 15.0430 -1.7017 0.9249
10.4289 16.4183 -1.7017 0.9249
8.3760 17.5546 -1.7017 0.9249
6.2012 18.4355 -1.7017 0.9249
3.9361 19.0480 -1.7017 0.9249
1.4767 17.7365 -1.5571 0.9310
-0.6698 17.7853 -1.5571 0.9310
-3.0671 19.2071 -1.7017 0.9249
-5.3576 18.6980 -1.7017 0.9249
-7.5701 17.9169 -1.7017 0.9249
-9.6726 16.8749 -1.7017 0.9249
-11.3862 15.2551 -1.6654 0.9264
-12.2256 12.8144 -1.5495 0.9314
-13.6797 11.2490 -1.5495 0.9314
-14.9347 9.5199 -1.5495 0.9314
-16.4353 7.8741 -1.5944 0.9294
-18.4255 6.2306 -1.7017 0.9249
-19.0417 3.9664 -1.7017 0.9249
-19.3808 1.6447 -1.7017 0.9249
-19.4378 -0.7010 -1.7017 0.9249
-19.2120 -3.0365 -1.7017 0.9249
-18.7066 -5.3278 -1.7017 0.9249
-17.9289 -7.5416 -1.7017 0.9249
-16.8903 -9.6457 -1.7017 0.9249
-15.6059 -11.6093 -1.7017 0.9249
-14.0944 -13.4040 -1.7017 0.9249
-12.3778 -15.0037 -1.7017 0.9249
-10.4811 -16.3850 -1.7017 0.9249
-8.4319 -17.5278 -1.7017 0.9249
-6.2598 -18.4156 -1.7017 0.9249
-3.9968 -19.0354 -1.7017 0.9249
-1.6756 -19.3782 -1.7017 0.9249
0.6087 -17.6593 -1.5459 0.9315
3.0059 -19.2168 -1.7017 0.9249
5.2980 -18.7150 -1.7017 0.9249
7.5131 -17.9409 -1.7017 0.9249
1.6129 -2.8348 -0.2853 0.9870
1.8084 -2.4391 -0.2656 0.9879
2.0653 -2.1786 -0.2626 0.9880
2.5640 -2.1221 -0.2912 0.9867
16.3682 -10.5072 -1.7017 0.9249
17.5144 -8.4597 -1.7017 0.9249
18.4056 -6.2892 -1.7017 0.9249
19.0290 -4.0271 -1.7017 0.9249
19.3755 -1.7065 -1.7017 0.9249
19.4400 0.6390 -1.7017 0.9249
19.2216 2.9753 -1.7017 0.9249
18.7234 5.2682 -1.7017 0.9249
17.6355 7.3522 -1.6716 0.9262
15.5261 8.8011 -1.5614 0.9308
14.2437 10.5256 -1.5495 0.9314
13.3022 12.5701 -1.6012 0.9291
12.4256 14.9641 -1.7017 0.9249
10.5333 16.3514 -1.7017 0.9249
8.4876 17.5009 -1.7017 0.9249
6.3185 18.3956 -1.7017 0.9249
4.0575 19.0226 -1.7017 0.9249
1.5897 17.7268 -1.5571 0.9310
-0.5564 17.7892 -1.5571 0.9310
-2.9446 19.2263 -1.7017 0.9249
-5.2384 18.7318 -1.7017 0.9249
-7.4558 17.9647 -1.7017 0.9249
-9.5648 16.9362 -1.7017 0.9249
-11.3689 15.4362 -1.6772 0.9259
-12.1437 12.8920 -1.5495 0.9314
-13.6077 11.3359 -1.5495 0.9314
-14.8737 9.6148 -1.5495 0.9314
-16.3058 7.9401 -1.5867 0.9298
-18.3855 6.3478 -1.7017 0.9249
-19.0161 4.0877 -1.7017 0.9249
-19.3699 1.7682 -1.7017 0.9249
-19.4419 -0.5771 -1.7017 0.9249
-19.2309 -2.9141 -1.7017 0.9249
-18.7401 -5.2085 -1.7017 0.9249
-17.9766 -7.4272 -1.7017 0.9249
-16.9514 -9.5378 -1.7017 0.9249
-15.6796 -11.5096 -1.7017 0.9249
-14.1796 -13.3139 -1.7017 0.9249
-12.4732 -14.9245 -1.7017 0.9249
-10.5853 -16.3179 -1.7017 0.9249
-8.5433 -17.4737 -1.7017 0.9249
-6.3771 -18.3753 -1.7017 0.9249
-4.1181 -19.0095 -1.7017 0.9249
-1.7991 -19.3671 -1.7017 0.9249
0.4961 -17.6590 -1.5456 0.9315
2.8834 -19.2356 -1.7017 0.9249
5.1787 -18.7484 -1.7017 0.9249
7.3985 -17.9884 -1.7017 0.9249
1.6030 -2.8597 -0.2868 0.9869
1.7951 -2.4537 -0.2660 0.9879
2.0513 -2.1917 -0.2626 0.9880
2.5309 -2.1221 -0.2890 0.9868
16.3010 -10.6113 -1.7017 0.9249
17.4601 -8.5712 -1.7017 0.9249
18.3652 -6.4064 -1.7017 0.9249
19.0029 -4.1483 -1.7017 0.9249
19.3642 -1.8299 -1.7017 0.9249
19.4436 0.5152 -1.7017 0.9249
19.2401 2.8527 -1.7017 0.9249
18.7566 5.1488 -1.7017 0.9249
17.7806 7.2800 -1.6809 0.9258
15.6150 8.7205 -1.5647 0.9307
14.3105 10.4346 -1.5495 0.9314
13.3354 12.4416 -1.5956 0.9294
12.5207 14.8847 -1.7017 0.9249
10.6372 16.2840 -1.7017 0.9249
8.5990 17.4464 -1.7017 0.9249
6.4356 18.3549 -1.7017 0.9249
4.1786 18.9963 -1.7017 0.9249
1.7026 17.7163 -1.5571 0.9310
-0.4431 17.7924 -1.5571 0.9310
-2.8221 19.2446 -1.7017 0.9249
-5.1189 18.7648 -1.7017 0.9249
-7.3412 18.0119 -1.7017 0.9249
-9.4567 16.9968 -1.7017 0.9249
-11.3513 15.6198 -1.6893 0.9254
-12.0613 12.9691 -1.5495 0.9314
-13.5352 11.4224 -1.5495 0.9314
-14.8121 9.7095 -1.5495 0.9314
-16.1876 8.0106 -1.5802 0.9300
-18.3446 6.4649 -1.7017 0.9249
-18.9896 4.2088 -1.7017 0.9249
-19.3583 1.8916 -1.7017 0.9249
-19.4452 -0.4532 -1.7017 0.9249
-19.2491 -2.7914 -1.7017 0.9249
-18.7729 -5.0890 -1.7017 0.9249
-18.0236 -7.3125 -1.7017 0.9249
-17.0119 -9.4296 -1.7017 0.9249
-15.7526 -11.4095 -1.7017 0.9249
-14.2641 -13.2233 -1.7017 0.9249
-12.5680 -14.8447 -1.7017 0.9249
-10.6891 -16.2500 -1.7017 0.9249
-8.6546 -17.4189 -1.7017 0.9249
-6.4941 -18.3343 -1.7017 0.9249
-4.2391 -18.9829 -1.7017 0.9249
-1.9224 -19.3552 -1.7017 0.9249
0.3834 -17.6587 -1.5453 0.9315
2.7607 -19.2535 -1.7017 0.9249
5.0590 -18.7810 -1.7017 0.9249
7.2837 -18.0352 -1.7017 0.9249
1.5930 -2.8847 -0.2883 0.9869
1.7846 -2.4722 -0.2668 0.9878
2.0377 -2.2051 -0.2627 0.9880
2.4979 -2.1217 -0.2867 0.9869
16.2330 -10.7150 -1.7017 0.9249
17.4051 -8.6823 -1.7017 0.9249
18.3240 -6.5232 -1.7017 0.9249
18.9761 -4.2693 -1.7017 0.9249
19.3521 -1.9533 -1.7017 0.9249
19.4465 0.3912 -1.7017 0.9249
19.2579 2.7300 -1.7017 0.9249
18.7891 5.0291 -1.7017 0.9249
17.9321 7.2090 -1.6909 0.9253
15.7076 8.6414 -1.5685 0.9305
14.3767 10.3433 -1.5495 0.9314
13.3684 12.3139 -1.5901 0.9296
12.6153 14.8046 -1.7017 0.9249
10.7408 16.2159 -1.7017 0.9249
8.7100 17.3913 -1.7017 0.9249
6.1983 17.3239 -1.6097 0.9288
4.2995 18.9693 -1.7017 0.9249
1.8155 17.7051 -1.5571 0.9310
-0.3296 17.7949 -1.5571 0.9310
-2.6994 19.2623 -1.7017 0.9249
-4.9992 18.7971 -1.7017 0.9249
-7.2263 18.0583 -1.7017 0.9249
-9.3482 17.0567 -1.7017 0.9249
-11.2895 15.7448 -1.6950 0.9252
-11.9784 13.0457 -1.5495 0.9314
-13.4621 11.5084 -1.5495 0.9314
-14.7499 9.8037 -1.5495 0.9314
-16.0730 8.0818 -1.5740 0.9303
-18.3031 6.5816 -1.7017 0.9249
-18.9624 4.3298 -1.7017 0.9249
-19.3458 2.0149 -1.7017 0.9249
-19.4477 -0.3293 -1.7017 0.9249
-19.2665 -2.6686 -1.7017 0.9249
-18.8050 -4.9693 -1.7017 0.9249
-18.0698 -7.1975 -1.7017 0.9249
-17.0716 -9.3210 -1.7017 0.9249
-15.8250 -11.3088 -1.7017 0.9249
-14.3481 -13.1321 -1.7017 0.9249
-12.6624 -14.7643 -1.7017 0.9249
-10.7924 -16.1816 -1.7017 0.9249
-8.7654 -17.3635 -1.7017 0.9249
-6.6108 -18.2926 -1.7017 0.9249
-4.3600 -18.9555 -1.7017 0.9249
-2.0457 -19.3426 -1.7017 0.9249
0.2729 -17.7958 -1.5571 0.9310
2.5118 -18.3488 -1.6203 0.9283
4.9393 -18.8129 -1.7017 0.9249
7.1687 -18.0812 -1.7017 0.9249
1.5828 -2.9100 -0.2898 0.9868
1.7752 -2.4925 -0.2677 0.9878
2.0240 -2.2185 -0.2627 0.9880
2.4654 -2.1213 -0.2845 0.9870
16.1644 -10.8182 -1.7017 0.9249
17.3495 -8.7930 -1.7017 0.9249
18.2820 -6.6399 -1.7017 0.9249
18.9485 -4.3902 -1.7017 0.9249
19.3393 -2.0766 -1.7017 0.9249
19.4486 0.2673 -1.7017 0.9249
19.2749 2.6073 -1.7017 0.9249
18.8207 4.9093 -1.7017 0.9249
18.0216 7.1118 -1.6950 0.9252
15.8007 8.5618 -1.5723 0.9304
14.4424 10.2514 -1.5495 0.9314
13.4011 12.1871 -1.5848 0.9298
12.6990 14.7119 -1.7003 0.9249
10.8439 16.1471 -1.7017 0.9249
8.8207 17.3354 -1.7017 0.9249
6.2061 17.0031 -1.5836 0.9299
4.4204 18.9415 -1.7017 0.9249
1.9283 17.6931 -1.5571 0.9310
-0.2163 17.7966 -1.5571 0.9310
-2.5766 19.2790 -1.7017 0.9249
-4.8793 18.8285 -1.7017 0.9249
-7.1110 18.1040 -1.7017 0.9249
-9.2393 17.1160 -1.7017 0.9249
-11.1988 15.8304 -1.6965 0.9251
-11.8950 13.1218 -1.5495 0.9314
-13.3885 11.5940 -1.5495 0.9314
-14.6872 9.8974 -1.5495 0.9314
-15.9592 8.1524 -1.5679 0.9306
-18.2524 6.6951 -1.7009 0.9249
-18.9344 4.4506 -1.7017 0.9249
-19.3326 2.1381 -1.7017 0.9249
-19.4494 -0.2054 -1.7017 0.9249
-19.2831 -2.5459 -1.7017 0.9249
-18.8363 -4.8493 -1.7017 0.9249
-18.1153 -7.0822 -1.7017 0.9249
-17.1307 -9.2120 -1.7017 0.9249
-15.8967 -11.2078 -1.7017 0.9249
-14.4315 -13.0404 -1.7017 0.9249
-12.7562 -14.6833 -1.7017 0.9249
-10.8953 -16.1125 -1.7017 0.9249
-8.8759 -17.3072 -1.7017 0.9249
-6.7272 -18.2501 -1.7017 0.9249
-4.4807 -18.9273 -1.7017 0.9249
-2.1689 -19.3292 -1.7017 0.9249
0.1596 -17.7972 -1.5571 0.9310
2.3356 -17.9108 -1.5803 0.9300
4.8193 -18.8440 -1.7017 0.9249
7.0533 -18.1266 -1.7017 0.9249
1.5725 -2.9355 -0.2913 0.9867
1.7656 -2.5128 -0.2687 0.9877
2.0103 -2.2319 -0.2628 0.9880
2.4334 -2.1209 -0.2824 0.9871
16.0951 -10.9211 -1.7017 0.9249
17.2930 -8.9035 -1.7017 0.9249
18.2393 -6.7564 -1.7017 0.9249
18.9202 -4.5108 -1.7017 0.9249
19.3257 -2.1997 -1.7017 0.9249
19.4499 0.1434 -1.7017 0.9249
19.2911 2.4844 -1.7017 0.9249
18.8516 4.7892 -1.7017 0.9249
18.0808 7.0023 -1.6964 0.9251
15.8942 8.4819 -1.5762 0.9302
14.5074 10.1591 -1.5495 0.9314
13.4412 12.0679 -1.5804 0.9300
12.7820 14.6185 -1.6989 0.9250
10.9467 16.0776 -1.7017 0.9249
8.9310 17.2788 -1.7017 0.9249
6.3301 17.0058 -1.5875 0.9297
4.5410 18.9130 -1.7017 0.9249
2.0410 17.6805 -1.5571 0.9310
-0.1028 17.7976 -1.5571 0.9310
-2.4537 19.2951 -1.7017 0.9249
-4.7592 18.8592 -1.7017 0.9249
-6.9955 18.1489 -1.7017 0.9249
-9.1300 17.1745 -1.7017 0.9249
-11.1075 15.9156 -1.6980 0.9250
-11.8439 13.2341 -1.5538 0.9312
-13.3143 11.6791 -1.5495 0.9314
-14.6238 9.9909 -1.5495 0.9314
-15.8461 8.2226 -1.5619 0.9308
-18.1933 6.8052 -1.6994 0.9250
-18.9057 4.5711 -1.7017 0.9249
-19.3186 2.2613 -1.7017 0.9249
-19.4503 -0.0814 -1.7017 0.9249
-19.2990 -2.4229 -1.7017 0.9249
-18.8668 -4.7291 -1.7017 0.9249
-18.1601 -6.9666 -1.7017 0.9249
-17.1891 -9.1026 -1.7017 0.9249
-15.9679 -11.1062 -1.7017 0.9249
-14.5142 -12.9483 -1.7017 0.9249
-12.8495 -14.6018 -1.7017 0.9249
-10.9977 -16.0428 -1.7017 0.9249
-8.9859 -17.2503 -1.7017 0.9249
-6.8434 -18.2068 -1.7017 0.9249
-4.6012 -18.8984 -1.7017 0.9249
-2.2921 -19.3149 -1.7017 0.9249
0.0460 -17.7978 -1.5571 0.9310
2.1950 -17.7118 -1.5614 0.9308
4.6990 -18.8743 -1.7017 0.9249
6.9376 -18.1711 -1.7017 0.9249
1.5621 -2.9611 -0.2929 0.9866
1.7560 -2.5333 -0.2697 0.9877
1.9966 -2.2452 -0.2629 0.9880
2.4019 -2.1205 -0.2803 0.9872
16.0252 -11.0233 -1.7017 0.9249
17.2360 -9.0134 -1.7017 0.9249
18.1959 -6.8724 -1.7017 0.9249
18.8910 -4.6313 -1.7017 0.9249
19.3113 -2.3229 -1.7017 0.9249
19.4505 0.0194 -1.7017 0.9249
19.3066 2.3614 -1.7017 0.9249
18.8818 4.6690 -1.7017 0.9249
18.1395 6.8924 -1.6977 0.9250
15.9882 8.4015 -1.5802 0.9300
14.5718 10.0666 -1.5495 0.9314
13.4834 11.9517 -1.5764 0.9302
12.8643 14.5249 -1.6975 0.9251
11.0488 16.0076 -1.7017 0.9249
9.0409 17.2216 -1.7017 0.9249
6.9014 18.1849 -1.7017 0.9249
4.6614 18.8836 -1.7017 0.9249
2.1537 17.6671 -1.5571 0.9310
0.0106 17.7979 -1.5571 0.9310
-2.3306 19.3103 -1.7017 0.9249
-4.6389 18.8892 -1.7017 0.9249
-6.8797 18.1932 -1.7017 0.9249
-9.0205 17.2323 -1.7017 0.9249
-11.0158 16.0003 -1.6995 0.9250
-11.8014 13.3567 -1.5594 0.9309
-13.2397 11.7637 -1.5495 0.9314
-14.5599 10.0838 -1.5495 0.9314
-15.7350 8.2925 -1.5561 0.9311
-18.1337 6.9150 -1.6979 0.9250
-18.8762 4.6915 -1.7017 0.9249
-19.3038 2.3844 -1.7017 0.9249
-19.4504 0.0426 -1.7017 0.9249
-19.3140 -2.2998 -1.7017 0.9249
-18.8966 -4.6088 -1.7017 0.9249
-18.2040 -6.8508 -1.7017 0.9249
-17.2467 -8.9930 -1.7017 0.9249
10.7677 8.7254 -1.7017 0.9457
9.6387 9.9586 -1.7017 0.9457
8.3694 11.0467 -1.7017 0.9457
6.9783 11.9742 -1.7017 0.9457
5.4857 12.7273 -1.7017 0.9457
3.9132 13.2953 -1.7017 0.9457
2.0897 12.5083 -1.5571 0.9502
0.5474 12.2022 -1.4997 0.9520
-1.0506 13.8193 -1.7017 0.9457
-2.7070 13.5923 -1.7017 0.9457
-4.3240 13.1674 -1.7017 0.9457
-5.8781 12.5509 -1.7017 0.9457
-7.3467 11.7518 -1.7017 0.9457
-8.7083 10.7816 -1.7017 0.9457
-9.9432 9.6546 -1.7017 0.9457
-11.0334 8.3870 -1.7017 0.9457
-11.9630 6.9974 -1.7017 0.9457
-12.7186 5.5059 -1.7017 0.9457
-13.2890 3.9344 -1.7017 0.9457
-13.6661 2.3056 -1.7017 0.9457
-13.8443 0.6431 -1.7017 0.9457
-13.8210 -1.0286 -1.7017 0.9457
-13.5966 -2.6853 -1.7017 0.9457
-13.1743 -4.3030 -1.7017 0.9457
-12.5603 -5.8581 -1.7017 0.9457
-11.7635 -7.3279 -1.7017 0.9457
-10.7955 -8.6911 -1.7017 0.9457
-9.6704 -9.9278 -1.7017 0.9457
-8.4046 -11.0200 -1.7017 0.9457
-7.0164 -11.9519 -1.7017 0.9457
-5.5262 -12.7098 -1.7017 0.9457
-3.9555 -13.2827 -1.7017 0.9457
-2.3273 -13.6624 -1.7017 0.9457
-0.6652 -13.8432 -1.7017 0.9457
1.0066 -13.8226 -1.7017 0.9457
2.6637 -13.6008 -1.7017 0.9457
4.2820 -13.1811 -1.7017 0.9457
1.2749 -2.7450 -0.3716 0.9879
1.4409 -2.3213 -0.3355 0.9890
1.6658 -2.0760 -0.3268 0.9893
2.1118 -2.0636 -0.3625 0.9882
2.6913 -2.0593 -0.4161 0.9864
11.9407 -7.0355 -1.7017 0.9457
12.7010 -5.5464 -1.7017 0.9457
13.2764 -3.9767 -1.7017 0.9457
13.6587 -2.3491 -1.7017 0.9457
13.8422 -0.6873 -1.7017 0.9457
13.8242 0.9845 -1.7017 0.9457
13.6050 2.6420 -1.7017 0.9457
13.1879 4.2610 -1.7017 0.9457
12.5789 5.8180 -1.7017 0.9457
11.7868 7.2904 -1.7017 0.9457
10.8231 8.6566 -1.7017 0.9457
9.7020 9.8969 -1.7017 0.9457
8.4396 10.9932 -1.7017 0.9457
7.0545 11.9294 -1.7017 0.9457
5.5667 12.6921 -1.7017 0.9457
3.9978 13.2701 -1.7017 0.9457
2.1694 12.4948 -1.5571 0.9502
0.6253 12.2020 -1.5002 0.9520
-0.9625 13.8257 -1.7017 0.9457
-2.6203 13.6092 -1.7017 0.9457
-4.2400 13.1947 -1.7017 0.9457
-5.7980 12.5881 -1.7017 0.9457
-7.2716 11.7984 -1.7017 0.9457
-8.6394 10.8369 -1.7017 0.9457
-9.8815 9.7177 -1.7017 0.9457
-10.9797 8.4571 -1.7017 0.9457
-11.9182 7.0735 -1.7017 0.9457
-12.6832 5.5869 -1.7017 0.9457
-13.2637 4.0190 -1.7017 0.9457
-13.6511 2.3926 -1.7017 0.9457
-13.8399 0.7314 -1.7017 0.9457
-13.8273 -0.9405 -1.7017 0.9457
-13.6134 -2.5987 -1.7017 0.9457
-13.2014 -4.2190 -1.7017 0.9457
-12.5973 -5.7779 -1.7017 0.9457
-11.8099 -7.2528 -1.7017 0.9457
-10.8506 -8.6221 -1.7017 0.9457
-9.7334 -9.8660 -1.7017 0.9457
-8.4746 -10.9662 -1.7017 0.9457
-7.0925 -11.9069 -1.7017 0.9457
-5.6071 -12.6743 -1.7017 0.9457
-4.0401 -13.2573 -1.7017 0.9457
-2.4143 -13.6473 -1.7017 0.9457
-0.7534 -13.8387 -1.7017 0.9457
0.9184 -13.8287 -1.7017 0.9457
2.5769 -13.6175 -1.7017 0.9457
4.1980 -13.2081 -1.7017 0.9457
1.2668 -2.7736 -0.3744 0.9878
1.4312 -2.3388 -0.3367 0.9890
1.6445 -2.0763 -0.3252 0.9894
2.0869 -2.0654 -0.3605 0.9882
2.6523 -2.0564 -0.4121 0.9866
11.8956 -7.1114 -1.7017 0.9457
12.6654 -5.6272 -1.7017 0.9457
13.2508 -4.0612 -1.7017 0.9457
13.6434 -2.4361 -1.7017 0.9457
13.8375 -0.7755 -1.7017 0.9457
13.8302 0.8964 -1.7017 0.9457
13.6216 2.5553 -1.7017 0.9457
13.2148 4.1769 -1.7017 0.9457
12.6157 5.7378 -1.7017 0.9457
11.8330 7.2151 -1.7017 0.9457
10.8781 8.5875 -1.7017 0.9457
9.7648 9.8349 -1.7017 0.9457
8.5095 10.9392 -1.7017 0.9457
7.1304 11.8843 -1.7017 0.9457
5.6474 12.6564 -1.7017 0.9457
4.0823 13.2443 -1.7017 0.9457
2.2490 12.4807 -1.5571 0.9502
0.7033 12.2018 -1.5007 0.9519
-0.8001 12.6564 -1.5571 0.9502
-2.5336 13.6257 -1.7017 0.9457
-4.1559 13.2214 -1.7017 0.9457
-5.7177 12.6248 -1.7017 0.9457
-7.1963 11.8444 -1.7017 0.9457
-8.5702 10.8917 -1.7017 0.9457
-9.8193 9.7805 -1.7017 0.9457
-10.9256 8.5269 -1.7017 0.9457
-11.8729 7.1493 -1.7017 0.9457
-12.6474 5.6676 -1.7017 0.9457
-13.2378 4.1034 -1.7017 0.9457
-13.6356 2.4795 -1.7017 0.9457
-13.8350 0.8196 -1.7017 0.9457
-13.8330 -0.8523 -1.7017 0.9457
-13.6297 -2.5119 -1.7017 0.9457
-13.2280 -4.1348 -1.7017 0.9457
-12.6339 -5.6975 -1.7017 0.9457
-11.8559 -7.1774 -1.7017 0.9457
-10.9054 -8.5528 -1.7017 0.9457
-9.7961 -9.8037 -1.7017 0.9457
-8.5443 -10.9120 -1.7017 0.9457
-7.1682 -11.8615 -1.7017 0.9457
-5.6877 -12.6383 -1.7017 0.9457
-4.1245 -13.2313 -1.7017 0.9457
-2.5013 -13.6316 -1.7017 0.9457
-0.8416 -13.8336 -1.7017 0.9457
0.8303 -13.8343 -1.7017 0.9457
2.4901 -13.6337 -1.7017 0.9457
4.1137 -13.2346 -1.7017 0.9457
1.2613 -2.8087 -0.3780 0.9877
1.4214 -2.3564 -0.3379 0.9890
1.6233 -2.0766 -0.3236 0.9894
2.0622 -2.0672 -0.3585 0.9883
2.6145 -2.0539 -0.4082 0.9867
11.8500 -7.1871 -1.7017 0.9457
12.6292 -5.7079 -1.7017 0.9457
13.2247 -4.1456 -1.7017 0.9457
13.6276 -2.5230 -1.7017 0.9457
13.8323 -0.8636 -1.7017 0.9457
13.8356 0.8083 -1.7017 0.9457
13.6376 2.4684 -1.7017 0.9457
13.2412 4.0926 -1.7017 0.9457
12.6520 5.6573 -1.7017 0.9457
11.8787 7.1396 -1.7017 0.9457
10.9326 8.5180 -1.7017 0.9457
9.8273 9.7725 -1.7017 0.9457
8.5791 10.8847 -1.7017 0.9457
7.2059 11.8386 -1.7017 0.9457
5.7280 12.6201 -1.7017 0.9457
4.1666 13.2180 -1.7017 0.9457
2.3285 12.4661 -1.5571 0.9502
0.7816 12.2057 -1.5017 0.9519
-0.7194 12.6613 -1.5571 0.9502
-2.4467 13.6415 -1.7017 0.9457
-4.0715 13.2477 -1.7017 0.9457
-5.6371 12.6610 -1.7017 0.9457
-7.1207 11.8901 -1.7017 0.9457
-8.5006 10.9461 -1.7017 0.9457
-9.7568 9.8429 -1.7017 0.9457
-10.8710 8.5964 -1.7017 0.9457
-11.8271 7.2248 -1.7017 0.9457
-12.6110 5.7481 -1.7017 0.9457
-13.2114 4.1877 -1.7017 0.9457
-13.6195 2.5664 -1.7017 0.9457
-13.8294 0.9077 -1.7017 0.9457
-13.8381 -0.7642 -1.7017 0.9457
-13.6454 -2.4250 -1.7017 0.9457
-13.2541 -4.0504 -1.7017 0.9457
-12.6700 -5.6169 -1.7017 0.9457
-11.9014 -7.1017 -1.7017 0.9457
-10.9596 -8.4831 -1.7017 0.9457
-9.8584 -9.7411 -1.7017 0.9457
-8.6137 -10.8573 -1.7017 0.9457
-7.2436 -11.8156 -1.7017 0.9457
-5.7682 -12.6018 -1.7017 0.9457
-4.2087 -13.2047 -1.7017 0.9457
-2.5881 -13.6154 -1.7017 0.9457
-0.9297 -13.8280 -1.7017 0.9457
0.7421 -13.8393 -1.7017 0.9457
2.4032 -13.6493 -1.7017 0.9457
4.0293 -13.2606 -1.7017 0.9457
1.2556 -2.8444 -0.3818 0.9875
1.4119 -2.3747 -0.3392 0.9889
1.6023 -2.0770 -0.3221 0.9895
2.0379 -2.0690 -0.3566 0.9884
2.5833 -2.0562 -0.4054 0.9868
3.4991 -2.1528 -0.5044 0.9836
12.5926 -5.7882 -1.7017 0.9457
13.1980 -4.2298 -1.7017 0.9457
13.6113 -2.6098 -1.7017 0.9457
13.8265 -0.9518 -1.7017 0.9457
13.8405 0.7201 -1.7017 0.9457
13.6531 2.3814 -1.7017 0.9457
13.2670 4.0081 -1.7017 0.9457
12.6878 5.5765 -1.7017 0.9457
11.9240 7.0638 -1.7017 0.9457
10.9866 8.4482 -1.7017 0.9457
9.8894 9.7097 -1.7017 0.9457
8.6482 10.8298 -1.7017 0.9457
7.2813 11.7924 -1.7017 0.9457
5.8083 12.5834 -1.7017 0.9457
4.2508 13.1912 -1.7017 0.9457
2.4079 12.4510 -1.5571 0.9502
0.8910 12.6504 -1.5571 0.9502
-0.6387 12.6656 -1.5571 0.9502
-2.3597 13.6568 -1.7017 0.9457
-3.9870 13.2733 -1.7017 0.9457
-5.5563 12.6967 -1.7017 0.9457
-7.0447 11.9352 -1.7017 0.9457
-8.4307 11.0001 -1.7017 0.9457
-9.6939 9.9048 -1.7017 0.9457
-10.8160 8.6655 -1.7017 0.9457
-11.7808 7.3000 -1.7017 0.9457
-12.5741 5.8283 -1.7017 0.9457
-13.1844 4.2718 -1.7017 0.9457
-13.6029 2.6531 -1.7017 0.9457
-13.8234 0.9958 -1.7017 0.9457
-13.8427 -0.6760 -1.7017 0.9457
-13.6606 -2.3379 -1.7017 0.9457
-13.2797 -3.9659 -1.7017 0.9457
-12.7055 -5.5361 -1.7017 0.9457
-11.9464 -7.0257 -1.7017 0.9457
-11.0135 -8.4131 -1.7017 0.9457
-9.9203 -9.6781 -1.7017 0.9457
-8.6827 -10.8022 -1.7017 0.9457
-7.3188 -11.7692 -1.7017 0.9457
-5.8483 -12.5648 -1.7017 0.9457
-4.2928 -13.1776 -1.7017 0.9457
-2.6748 -13.5986 -1.7017 0.9457
-1.0178 -13.8218 -1.7017 0.9457
0.6539 -13.8438 -1.7017 0.9457
2.3162 -13.6643 -1.7017 0.9457
3.9447 -13.2860 -1.7017 0.9457
1.2498 -2.8809 -0.3856 0.9874
1.4025 -2.3936 -0.3406 0.9889
1.5860 -2.0830 -0.3215 0.9895
2.0126 -2.0696 -0.3545 0.9884
2.5525 -2.0584 -0.4026 0.9869
3.4127 -2.1298 -0.4939 0.9839
12.5555 -5.8684 -1.7017 0.9457
13.1708 -4.3138 -1.7017 0.9457
13.5944 -2.6965 -1.7017 0.9457
13.8201 -1.0399 -1.7017 0.9457
13.8448 0.6319 -1.7017 0.9457
13.6680 2.2944 -1.7017 0.9457
13.2922 3.9235 -1.7017 0.9457
12.7231 5.4956 -1.7017 0.9457
11.9687 6.9876 -1.7017 0.9457
11.0403 8.3780 -1.7017 0.9457
9.9511 9.6464 -1.7017 0.9457
8.7171 10.7745 -1.7017 0.9457
7.3563 11.7458 -1.7017 0.9457
5.8883 12.5461 -1.7017 0.9457
4.3348 13.1639 -1.7017 0.9457
2.4872 12.4354 -1.5571 0.9502
0.9717 12.6444 -1.5571 0.9502
-0.5580 12.6694 -1.5571 0.9502
-2.2726 13.6716 -1.7017 0.9457
-3.9024 13.2985 -1.7017 0.9457
-5.4753 12.7318 -1.7017 0.9457
-6.9685 11.9799 -1.7017 0.9457
-8.3604 11.0536 -1.7017 0.9457
-9.6306 9.9664 -1.7017 0.9457
-10.7606 8.7343 -1.7017 0.9457
-11.7340 7.3750 -1.7017 0.9457
-12.5367 5.9083 -1.7017 0.9457
-13.1569 4.3557 -1.7017 0.9457
-13.5857 2.7398 -1.7017 0.9457
-13.8168 1.0839 -1.7017 0.9457
-13.8467 -0.5877 -1.7017 0.9457
-13.6752 -2.2508 -1.7017 0.9457
-13.3047 -3.8812 -1.7017 0.9457
-12.7405 -5.4550 -1.7017 0.9457
-11.9910 -6.9494 -1.7017 0.9457
-11.0669 -8.3427 -1.7017 0.9457
-9.9818 -9.6147 -1.7017 0.9457
-8.7514 -10.7467 -1.7017 0.9457
-7.3936 -11.7223 -1.7017 0.9457
-5.9283 -12.5273 -1.7017 0.9457
-4.3767 -13.1500 -1.7017 0.9457
-2.7614 -13.5813 -1.7017 0.9457
-1.1059 -13.8150 -1.7017 0.9457
0.5656 -13.8477 -1.7017 0.9457
2.2290 -13.6788 -1.7017 0.9457
3.8599 -13.3108 -1.7017 0.9457
1.2438 -2.9179 -0.3895 0.9873
1.3930 -2.4125 -0.3421 0.9888
1.5738 -2.0946 -0.3217 0.9895
1.9876 -2.0701 -0.3524 0.9885
2.5217 -2.0602 -0.3998 0.9870
3.3518 -2.1216 -0.4871 0.9841
12.5178 -5.9482 -1.7017 0.9457
13.1430 -4.3976 -1.7017 0.9457
13.5769 -2.7831 -1.7017 0.9457
13.8132 -1.1279 -1.7017 0.9457
13.8485 0.5436 -1.7017 0.9457
13.6823 2.2072 -1.7017 0.9457
13.3170 3.8387 -1.7017 0.9457
12.7578 5.4144 -1.7017 0.9457
12.0130 6.9112 -1.7017 0.9457
11.0934 8.3075 -1.7017 0.9457
10.0123 9.5828 -1.7017 0.9457
8.7856 10.7187 -1.7017 0.9457
7.4309 11.6986 -1.7017 0.9457
5.9682 12.5083 -1.7017 0.9457
4.4186 13.1360 -1.7017 0.9457
2.8046 13.5725 -1.7017 0.9457
1.0522 12.6380 -1.5571 0.9502
-0.4773 12.6727 -1.5571 0.9502
-2.1854 13.6858 -1.7017 0.9457
-3.8175 13.3231 -1.7017 0.9457
-5.3940 12.7665 -1.7017 0.9457
-6.8921 12.0240 -1.7017 0.9457
-8.2898 11.1066 -1.7017 0.9457
-9.5669 10.0276 -1.7017 0.9457
-10.7047 8.8026 -1.7017 0.9457
-11.6868 7.4496 -1.7017 0.9457
-12.4988 5.9881 -1.7017 0.9457
-13.1289 4.4395 -1.7017 0.9457
-13.5680 2.8262 -1.7017 0.9457
-13.8096 1.1719 -1.7017 0.9457
-13.8502 -0.4995 -1.7017 0.9457
-13.6893 -2.1636 -1.7017 0.9457
-13.3291 -3.7963 -1.7017 0.9457
-12.7750 -5.3737 -1.7017 0.9457
-12.0350 -6.8729 -1.7017 0.9457
-11.1198 -8.2721 -1.7017 0.9457
-10.0428 -9.5509 -1.7017 0.9457
-8.8197 -10.6907 -1.7017 0.9457
-7.4682 -11.6749 -1.7017 0.9457
-6.0080 -12.4892 -1.7017 0.9457
-4.4604 -13.1218 -1.7017 0.9457
-2.8479 -13.5634 -1.7017 0.9457
-1.1939 -13.8077 -1.7017 0.9457
0.4774 -13.8510 -1.7017 0.9457
2.1418 -13.6927 -1.7017 0.9457
3.7750 -13.3352 -1.7017 0.9457
1.2371 -2.9541 -0.3932 0.9872
1.3841 -2.4327 -0.3437 0.9888
1.5621 -2.1068 -0.3220 0.9895
1.9629 -2.0706 -0.3503 0.9886
2.4892 -2.0603 -0.3967 0.9871
3.2819 -2.1067 -0.4788 0.9844
12.4797 -6.0279 -1.7017 0.9457
13.1147 -4.4813 -1.7017 0.9457
13.5589 -2.8695 -1.7017 0.9457
13.8058 -1.2159 -1.7017 0.9457
13.8517 0.4554 -1.7017 0.9457
13.6961 2.1200 -1.7017 0.9457
13.3412 3.7538 -1.7017 0.9457
12.7921 5.3330 -1.7017 0.9457
12.0568 6.8345 -1.7017 0.9457
11.1461 8.2366 -1.7017 0.9457
10.0732 9.5188 -1.7017 0.9457
8.8537 10.6625 -1.7017 0.9457
7.5054 11.6510 -1.7017 0.9457
6.0478 12.4701 -1.7017 0.9457
4.5022 13.1075 -1.7017 0.9457
2.8911 13.5543 -1.7017 0.9457
1.1327 12.6310 -1.5571 0.9502
-0.3965 12.6755 -1.5571 0.9502
-2.0981 13.6995 -1.7017 0.9457
-3.7326 13.3471 -1.7017 0.9457
-5.3126 12.8006 -1.7017 0.9457
-6.8153 12.0677 -1.7017 0.9457
-8.2188 11.1592 -1.7017 0.9457
-9.5028 10.0884 -1.7017 0.9457
-10.6484 8.8707 -1.7017 0.9457
-11.6391 7.5239 -1.7017 0.9457
-12.4604 6.0676 -1.7017 0.9457
-13.1004 4.5231 -1.7017 0.9457
-13.5497 2.9127 -1.7017 0.9457
-13.8018 1.2599 -1.7017 0.9457
-13.8531 -0.4112 -1.7017 0.9457
-13.7028 -2.0764 -1.7017 0.9457
-13.3530 -3.7113 -1.7017 0.9457
-12.8090 -5.2922 -1.7017 0.9457
-12.0785 -6.7960 -1.7017 0.9457
-11.1723 -8.2010 -1.7017 0.9457
-10.1035 -9.4867 -1.7017 0.9457
-8.8876 -10.6343 -1.7017 0.9457
-7.5424 -11.6271 -1.7017 0.9457
-6.0875 -12.4507 -1.7017 0.9457
-4.5439 -13.0931 -1.7017 0.9457
-2.9343 -13.5450 -1.7017 0.9457
-1.2819 -13.7998 -1.7017 0.9457
0.3892 -13.8537 -1.7017 0.9457
2.0545 -13.7061 -1.7017 0.9457
3.6900 -13.3589 -1.7017 0.9457
1.2300 -2.9906 -0.3970 0.9871
1.3766 -2.4557 -0.3457 0.9887
1.5504 -2.1192 -0.3224 0.9895
1.9384 -2.0711 -0.3483 0.9886
2.4573 -2.0603 -0.3937 0.9872
3.2207 -2.0966 -0.4719 0.9846
12.4410 -6.1073 -1.7017 0.9457
13.0859 -4.5648 -1.7017 0.9457
13.5403 -2.9559 -1.7017 0.9457
13.7977 -1.3039 -1.7017 0.9457
13.8543 0.3671 -1.7017 0.9457
13.7093 2.0327 -1.7017 0.9457
13.3648 3.6687 -1.7017 0.9457
12.8258 5.2513 -1.7017 0.9457
12.1001 6.7575 -1.7017 0.9457
11.1984 8.1654 -1.7017 0.9457
10.1336 9.4545 -1.7017 0.9457
8.9215 10.6059 -1.7017 0.9457
7.5794 11.6030 -1.7017 0.9457
6.1271 12.4312 -1.7017 0.9457
4.5856 13.0786 -1.7017 0.9457
2.9774 13.5356 -1.7017 0.9457
1.2132 12.6235 -1.5571 0.9502
-0.3157 12.6778 -1.5571 0.9502
-2.0108 13.7126 -1.7017 0.9457
-3.6474 13.3706 -1.7017 0.9457
-5.2309 12.8342 -1.7017 0.9457
-6.7382 12.1109 -1.7017 0.9457
-8.1476 11.2114 -1.7017 0.9457
-9.4383 10.1487 -1.7017 0.9457
-10.5917 8.9383 -1.7017 0.9457
-11.5909 7.5979 -1.7017 0.9457
-12.4215 6.1469 -1.7017 0.9457
-13.0713 4.6065 -1.7017 0.9457
-13.5308 2.9989 -1.7017 0.9457
-13.7935 1.3478 -1.7017 0.9457
-13.8554 -0.3230 -1.7017 0.9457
-13.7157 -1.9890 -1.7017 0.9457
-13.3764 -3.6261 -1.7017 0.9457
-12.8425 -5.2104 -1.7017 0.9457
-12.1216 -6.7189 -1.7017 0.9457
-11.2243 -8.1297 -1.7017 0.9457
-10.1637 -9.4221 -1.7017 0.9457
-8.9552 -10.5774 -1.7017 0.9457
-7.6164 -11.5788 -1.7017 0.9457
-6.1667 -12.4117 -1.7017 0.9457
-4.6273 -13.0639 -1.7017 0.9457
-3.0205 -13.5261 -1.7017 0.9457
-1.3698 -13.7913 -1.7017 0.9457
0.3009 -13.8559 -1.7017 0.9457
1.9671 -13.7189 -1.7017 0.9457
3.6048 -13.3822 -1.7017 0.9457
1.2228 -3.0277 -0.4009 0.9869
1.3689 -2.4790 -0.3477 0.9887
1.5416 -2.1356 -0.3234 0.9894
1.9143 -2.0715 -0.3463 0.9887
2.4258 -2.0604 -0.3908 0.9873
3.1737 -2.0949 -0.4669 0.9848
12.4018 -6.1865 -1.7017 0.9457
13.0565 -4.6481 -1.7017 0.9457
13.5212 -3.0420 -1.7017 0.9457
13.7891 -1.3918 -1.7017 0.9457
13.8564 0.2788 -1.7017 0.9457
13.7220 1.9453 -1.7017 0.9457
13.3879 3.5834 -1.7017 0.9457
12.8590 5.1695 -1.7017 0.9457
12.1429 6.6803 -1.7017 0.9457
11.2502 8.0939 -1.7017 0.9457
10.1937 9.3897 -1.7017 0.9457
8.9889 10.5488 -1.7017 0.9457
7.6533 11.5544 -1.7017 0.9457
6.2062 12.3920 -1.7017 0.9457
4.6689 13.0491 -1.7017 0.9457
3.0636 13.5164 -1.7017 0.9457
1.2936 12.6155 -1.5571 0.9502
-0.2349 12.6795 -1.5571 0.9502
-1.9234 13.7251 -1.7017 0.9457
-3.5621 13.3936 -1.7017 0.9457
-5.1490 12.8672 -1.7017 0.9457
-6.6609 12.1536 -1.7017 0.9457
-8.0759 11.2631 -1.7017 0.9457
-9.3734 10.2087 -1.7017 0.9457
-10.5345 9.0057 -1.7017 0.9457
-11.5422 7.6717 -1.7017 0.9457
-12.3821 6.2259 -1.7017 0.9457
-13.0417 4.6896 -1.7017 0.9457
-13.5114 3.0851 -1.7017 0.9457
-13.7846 1.4357 -1.7017 0.9457
-13.8572 -0.2346 -1.7017 0.9457
-13.7281 -1.9015 -1.7017 0.9457
-13.3993 -3.5408 -1.7017 0.9457
-12.8754 -5.1285 -1.7017 0.9457
-12.1642 -6.6416 -1.7017 0.9457
-11.2759 -8.0580 -1.7017 0.9457
-10.2236 -9.3571 -1.7017 0.9457
-9.0225 -10.5201 -1.7017 0.9457
-7.6900 -11.5300 -1.7017 0.9457
-6.2456 -12.3721 -1.7017 0.9457
-4.7104 -13.0342 -1.7017 0.9457
-3.1067 -13.5065 -1.7017 0.9457
-1.4577 -13.7823 -1.7017 0.9457
0.2125 -13.8576 -1.7017 0.9457
1.8797 -13.7311 -1.7017 0.9457
3.5194 -13.4049 -1.7017 0.9457
1.2154 -3.0655 -0.4049 0.9868
1.3612 -2.5025 -0.3498 0.9886
1.5328 -2.1522 -0.3244 0.9894
1.8903 -2.0720 -0.3444 0.9888
2.3948 -2.0605 -0.3879 0.9873
3.1176 -2.0865 -0.4606 0.9850
12.3622 -6.2654 -1.7017 0.9457
13.0266 -4.7312 -1.7017 0.9457
13.5016 -3.1282 -1.7017 0.9457
13.7800 -1.4796 -1.7017 0.9457
13.8579 0.1904 -1.7017 0.9457
13.7341 1.8578 -1.7017 0.9457
13.4105 3.4981 -1.7017 0.9457
12.8917 5.0874 -1.7017 0.9457
12.1853 6.6028 -1.7017 0.9457
11.3016 8.0220 -1.7017 0.9457
10.2533 9.3245 -1.7017 0.9457
9.0559 10.4913 -1.7017 0.9457
7.7267 11.5055 -1.7017 0.9457
6.2851 12.3522 -1.7017 0.9457
4.7520 13.0191 -1.7017 0.9457
3.1497 13.4966 -1.7017 0.9457
1.3740 12.6070 -1.5571 0.9502
-0.1541 12.6808 -1.5571 0.9502
-1.8359 13.7371 -1.7017 0.9457
-3.4767 13.4160 -1.7017 0.9457
-5.0669 12.8998 -1.7017 0.9457
-6.5833 12.1958 -1.7017 0.9457
-8.0040 11.3143 -1.7017 0.9457
-9.3082 10.2682 -1.7017 0.9457
-10.4769 9.0726 -1.7017 0.9457
-11.4931 7.7450 -1.7017 0.9457
-12.3421 6.3047 -1.7017 0.9457
-13.0115 4.7727 -1.7017 0.9457
-13.4915 3.1712 -1.7017 0.9457
-13.7752 1.5235 -1.7017 0.9457
-13.8584 -0.1463 -1.7017 0.9457
-13.7400 -1.8140 -1.7017 0.9457
-13.4216 -3.4553 -1.7017 0.9457
-12.9078 -5.0463 -1.7017 0.9457
-12.2063 -6.5639 -1.7017 0.9457
-11.3270 -7.9860 -1.7017 0.9457
-10.2830 -9.2918 -1.7017 0.9457
-9.0893 -10.4624 -1.7017 0.9457
-7.7633 -11.4808 -1.7017 0.9457
-6.3244 -12.3321 -1.7017 0.9457
-4.7934 -13.0039 -1.7017 0.9457
-3.1927 -13.4865 -1.7017 0.9457
-1.5454 -13.7728 -1.7017 0.9457
0.1242 -13.8586 -1.7017 0.9457
1.7921 -13.7428 -1.7017 0.9457
3.4339 -13.4271 -1.7017 0.9457
1.2078 -3.1041 -0.4090 0.9867
1.3533 -2.5262 -0.3519 0.9885
1.5239 -2.1688 -0.3255 0.9894
1.8667 -2.0724 -0.3425 0.9888
2.3642 -2.0605 -0.3851 0.9874
3.0629 -2.0783 -0.4545 0.9852
12.3219 -6.3441 -1.7017 0.9457
12.9962 -4.8142 -1.7017 0.9457
13.4814 -3.2141 -1.7017 0.9457
13.7703 -1.5674 -1.7017 0.9457
13.8588 0.1022 -1.7017 0.9457
13.7457 1.7702 -1.7017 0.9457
13.4325 3.4125 -1.7017 0.9457
12.9239 5.0052 -1.7017 0.9457
12.2271 6.5250 -1.7017 0.9457
11.3525 7.9498 -1.7017 0.9457
10.3126 9.2590 -1.7017 0.9457
9.1226 10.4334 -1.7017 0.9457
7.7999 11.4559 -1.7017 0.9457
6.3637 12.3118 -1.7017 0.9457
4.8348 12.9885 -1.7017 0.9457
3.2356 13.4762 -1.7017 0.9457
1.4543 12.5980 -1.5571 0.9502
-0.0733 12.6815 -1.5571 0.9502
-1.7483 13.7485 -1.7017 0.9457
-3.3911 13.4379 -1.7017 0.9457
-4.9846 12.9318 -1.7017 0.9457
-6.5055 12.2375 -1.7017 0.9457
-7.9317 11.3651 -1.7017 0.9457
-9.2425 10.3273 -1.7017 0.9457
-10.4188 9.1392 -1.7017 0.9457
-11.4435 7.8182 -1.7017 0.9457
-12.3017 6.3833 -1.7017 0.9457
-12.9808 4.8555 -1.7017 0.9457
-13.4710 3.2571 -1.7017 0.9457
-13.7652 1.6113 -1.7017 0.9457
-13.8591 -0.0580 -1.7017 0.9457
-13.7513 -1.7264 -1.7017 0.9457
-13.4433 -3.3697 -1.7017 0.9457
-12.9397 -4.9639 -1.7017 0.9457
-12.2479 -6.4859 -1.7017 0.9457
-11.3777 -7.9136 -1.7017 0.9457
-10.3420 -9.2261 -1.7017 0.9457
-9.1558 -10.4043 -1.7017 0.9457
-7.8363 -11.4311 -1.7017 0.9457
-6.4028 -12.2915 -1.7017 0.9457
-4.8762 -12.9731 -1.7017 0.9457
-3.2785 -13.4658 -1.7017 0.9457
-1.6332 -13.7626 -1.7017 0.9457
0.0359 -13.8592 -1.7017 0.9457
1.7045 -13.7540 -1.7017 0.9457
3.3483 -13.4487 -1.7017 0.9457
1.2046 -3.1550 -0.4147 0.9865
1.3453 -2.5502 -0.3540 0.9884
1.5150 -2.1855 -0.3265 0.9893
1.8433 -2.0729 -0.3406 0.9889
2.3341 -2.0606 -0.3823 0.9875
3.0098 -2.0703 -0.4485 0.9854
12.2813 -6.4224 -1.7017 0.9457
12.9653 -4.8968 -1.7017 0.9457
13.4606 -3.3000 -1.7017 0.9457
13.7600 -1.6551 -1.7017 0.9457
13.8592 0.0138 -1.7017 0.9457
13.7567 1.6826 -1.7017 0.9457
13.4540 3.3268 -1.7017 0.9457
12.9555 4.9227 -1.7017 0.9457
12.2685 6.4469 -1.7017 0.9457
11.4028 7.8774 -1.7017 0.9457
10.3713 9.1931 -1.7017 0.9457
9.1889 10.3751 -1.7017 0.9457
7.8727 11.4060 -1.7017 0.9457
6.4420 12.2710 -1.7017 0.9457
4.9175 12.9575 -1.7017 0.9457
3.3214 13.4553 -1.7017 0.9457
1.5346 12.5885 -1.5571 0.9502
0.0076 12.6817 -1.5571 0.9502
-1.6606 13.7594 -1.7017 0.9457
-3.3054 13.4593 -1.7017 0.9457
-4.9020 12.9633 -1.7017 0.9457
-6.4274 12.2787 -1.7017 0.9457
-7.8592 11.4154 -1.7017 0.9457
-9.1766 10.3860 -1.7017 0.9457
-10.3604 9.2054 -1.7017 0.9457
-11.3935 7.8909 -1.7017 0.9457
-12.2608 6.4615 -1.7017 0.9457
-12.9496 4.9381 -1.7017 0.9457
-13.4500 3.3429 -1.7017 0.9457
-13.7547 1.6990 -1.7017 0.9457
-13.8592 0.0304 -1.7017 0.9457
-13.7620 -1.6387 -1.7017 0.9457
-13.4645 -3.2839 -1.7017 0.9457
-12.9711 -4.8815 -1.7017 0.9457
-12.2889 -6.4078 -1.7017 0.9457
8.3475 6.7642 -1.7017 0.9574
7.4722 7.7202 -1.7017 0.9574
6.4882 8.5638 -1.7017 0.9574
5.4098 9.2827 -1.7017 0.9574
4.2527 9.8666 -1.7017 0.9574
3.0336 10.3069 -1.7017 0.9574
1.7704 10.5972 -1.7017 0.9574
0.4815 10.7333 -1.7017 0.9574
-0.8145 10.7132 -1.7017 0.9574
-2.0986 10.5371 -1.7017 0.9574
-3.3521 10.2078 -1.7017 0.9574
-4.5569 9.7298 -1.7017 0.9574
-5.6954 9.1103 -1.7017 0.9574
-6.7509 8.3582 -1.7017 0.9574
-7.7083 7.4845 -1.7017 0.9574
-8.5534 6.5019 -1.7017 0.9574
-9.2741 5.4246 -1.7017 0.9574
-9.8598 4.2684 -1.7017 0.9574
-10.3021 3.0500 -1.7017 0.9574
-10.5944 1.7873 -1.7017 0.9574
-10.7325 0.4986 -1.7017 0.9574
-10.7145 -0.7974 -1.7017 0.9574
-10.5405 -2.0818 -1.7017 0.9574
-10.2131 -3.3358 -1.7017 0.9574
-9.7371 -4.5414 -1.7017 0.9574
-9.1194 -5.6808 -1.7017 0.9574
-8.3690 -6.7376 -1.7017 0.9574
-7.4968 -7.6963 -1.7017 0.9574
-6.5155 -8.5431 -1.7017 0.9574
-5.4394 -9.2655 -1.7017 0.9574
-4.2841 -9.8530 -1.7017 0.9574
-3.0665 -10.2972 -1.7017 0.9574
-1.8042 -10.5915 -1.7017 0.9574
-0.5157 -10.7317 -1.7017 0.9574
0.7803 -10.7157 -1.7017 0.9574
2.0650 -10.5438 -1.7017 0.9574
0.9607 -2.9572 -0.4925 0.9875
1.1450 -2.4651 -0.4305 0.9891
1.3251 -2.1348 -0.3980 0.9899
1.6334 -2.0356 -0.4134 0.9895
2.0669 -2.0197 -0.4577 0.9884
2.6028 -1.9916 -0.5191 0.9868
3.3805 -1.9918 -0.6214 0.9842
9.8462 -4.2998 -1.7017 0.9574
10.2923 -3.0829 -1.7017 0.9574
10.5886 -1.8211 -1.7017 0.9574
10.7309 -0.5328 -1.7017 0.9574
10.7169 0.7632 -1.7017 0.9574
10.5470 2.0482 -1.7017 0.9574
10.2237 3.3033 -1.7017 0.9574
9.7515 4.5103 -1.7017 0.9574
9.1375 5.6517 -1.7017 0.9574
8.3904 6.7109 -1.7017 0.9574
7.5213 7.6724 -1.7017 0.9574
6.5427 8.5223 -1.7017 0.9574
5.4689 9.2481 -1.7017 0.9574
4.3154 9.8393 -1.7017 0.9574
3.0993 10.2874 -1.7017 0.9574
1.8379 10.5857 -1.7017 0.9574
0.5499 10.7300 -1.7017 0.9574
-0.7462 10.7181 -1.7017 0.9574
-2.0314 10.5503 -1.7017 0.9574
-3.2870 10.2289 -1.7017 0.9574
-4.4948 9.7587 -1.7017 0.9574
-5.6372 9.1464 -1.7017 0.9574
-6.6975 8.4011 -1.7017 0.9574
-7.6604 7.5335 -1.7017 0.9574
-8.5118 6.5562 -1.7017 0.9574
-9.2394 5.4836 -1.7017 0.9574
-9.8324 4.3311 -1.7017 0.9574
-10.2824 3.1156 -1.7017 0.9574
-10.5828 1.8548 -1.7017 0.9574
-10.7291 0.5670 -1.7017 0.9574
-10.7193 -0.7291 -1.7017 0.9574
-10.5535 -2.0146 -1.7017 0.9574
-10.2341 -3.2707 -1.7017 0.9574
-9.7659 -4.4792 -1.7017 0.9574
-9.1554 -5.6226 -1.7017 0.9574
-8.4117 -6.6841 -1.7017 0.9574
-7.5457 -7.6484 -1.7017 0.9574
-6.5698 -8.5014 -1.7017 0.9574
-5.4983 -9.2306 -1.7017 0.9574
-4.3468 -9.8255 -1.7017 0.9574
-3.1320 -10.2774 -1.7017 0.9574
-1.8717 -10.5798 -1.7017 0.9574
-0.5841 -10.7282 -1.7017 0.9574
0.7120 -10.7205 -1.7017 0.9574
1.9977 -10.5567 -1.7017 0.9574
0.9514 -2.9935 -0.4975 0.9874
1.1360 -2.4872 -0.4331 0.9890
1.3158 -2.1503 -0.3993 0.9898
1.6130 -2.0365 -0.4115 0.9895
2.0428 -2.0218 -0.4552 0.9884
2.5722 -1.9943 -0.5155 0.9869
3.3175 -1.9833 -0.6122 0.9845
9.8186 -4.3624 -1.7017 0.9574
10.2724 -3.1484 -1.7017 0.9574
10.5768 -1.8885 -1.7017 0.9574
10.7273 -0.6012 -1.7017 0.9574
10.7216 0.6949 -1.7017 0.9574
10.5599 1.9809 -1.7017 0.9574
10.2445 3.2381 -1.7017 0.9574
9.7801 4.4481 -1.7017 0.9574
9.1733 5.5934 -1.7017 0.9574
8.4330 6.6573 -1.7017 0.9574
7.5700 7.6243 -1.7017 0.9574
6.5968 8.4804 -1.7017 0.9574
5.5277 9.2130 -1.7017 0.9574
4.3781 9.8116 -1.7017 0.9574
3.1647 10.2674 -1.7017 0.9574
1.9054 10.5738 -1.7017 0.9574
0.6183 10.7263 -1.7017 0.9574
-0.6779 10.7227 -1.7017 0.9574
-1.9641 10.5630 -1.7017 0.9574
-3.2218 10.2497 -1.7017 0.9574
-4.4325 9.7871 -1.7017 0.9574
-5.5788 9.1822 -1.7017 0.9574
-6.6439 8.4436 -1.7017 0.9574
-7.6122 7.5821 -1.7017 0.9574
-8.4699 6.6103 -1.7017 0.9574
-9.2042 5.5423 -1.7017 0.9574
-9.8046 4.3937 -1.7017 0.9574
-10.2623 3.1811 -1.7017 0.9574
-10.5707 1.9222 -1.7017 0.9574
-10.7253 0.6353 -1.7017 0.9574
-10.7237 -0.6608 -1.7017 0.9574
-10.5661 -1.9473 -1.7017 0.9574
-10.2548 -3.2054 -1.7017 0.9574
-9.7942 -4.4169 -1.7017 0.9574
-9.1911 -5.5642 -1.7017 0.9574
-8.4542 -6.6304 -1.7017 0.9574
-7.5943 -7.6002 -1.7017 0.9574
-6.6238 -8.4593 -1.7017 0.9574
-5.5570 -9.1954 -1.7017 0.9574
-4.4093 -9.7976 -1.7017 0.9574
-3.1974 -10.2573 -1.7017 0.9574
-1.9391 -10.5677 -1.7017 0.9574
-0.6524 -10.7243 -1.7017 0.9574
0.6437 -10.7248 -1.7017 0.9574
1.9304 -10.5692 -1.7017 0.9574
0.9420 -3.0305 -0.5026 0.9872
1.1269 -2.5094 -0.4357 0.9889
1.3065 -2.1658 -0.4006 0.9898
1.5927 -2.0375 -0.4096 0.9896
2.0189 -2.0238 -0.4528 0.9885
2.5419 -1.9969 -0.5120 0.9870
3.2663 -1.9810 -0.6051 0.9846
9.7906 -4.4249 -1.7017 0.9574
10.2522 -3.2138 -1.7017 0.9574
10.5646 -1.9559 -1.7017 0.9574
10.7232 -0.6695 -1.7017 0.9574
10.7258 0.6266 -1.7017 0.9574
10.5723 1.9136 -1.7017 0.9574
10.2649 3.1727 -1.7017 0.9574
9.8082 4.3857 -1.7017 0.9574
9.2087 5.5348 -1.7017 0.9574
8.4753 6.6034 -1.7017 0.9574
7.6184 7.5759 -1.7017 0.9574
6.6507 8.4382 -1.7017 0.9574
5.5863 9.1776 -1.7017 0.9574
4.4405 9.7835 -1.7017 0.9574
3.2301 10.2470 -1.7017 0.9574
1.9727 10.5614 -1.7017 0.9574
0.6866 10.7221 -1.7017 0.9574
-0.6095 10.7268 -1.7017 0.9574
-1.8967 10.5753 -1.7017 0.9574
-3.1564 10.2700 -1.7017 0.9574
-4.3700 9.8152 -1.7017 0.9574
-5.5201 9.2175 -1.7017 0.9574
-6.5899 8.4858 -1.7017 0.9574
-7.5638 7.6305 -1.7017 0.9574
-8.4276 6.6642 -1.7017 0.9574
-9.1687 5.6009 -1.7017 0.9574
-9.7764 4.4561 -1.7017 0.9574
-10.2419 3.2464 -1.7017 0.9574
-10.5583 1.9895 -1.7017 0.9574
-10.7210 0.7037 -1.7017 0.9574
-10.7277 -0.5924 -1.7017 0.9574
-10.5783 -1.8799 -1.7017 0.9574
-10.2750 -3.1400 -1.7017 0.9574
-9.8222 -4.3544 -1.7017 0.9574
-9.2263 -5.5055 -1.7017 0.9574
