ply
format ascii 1.0
element vertex 1541
property float32 x
property float32 y
property float32 z
property float32 I
end_header
19.8046 -21.7001 5.7107 0.8872
19.9916 -17.1977 5.1260 0.8981
20.8252 -13.9374 4.8709 0.9029
24.3275 -12.3321 5.3017 0.8948
33.4936 -12.1710 6.9270 0.8648
58.8772 15.3204 11.8257 0.7804
26.8788 10.5861 5.6153 0.8889
23.0469 12.4655 5.0932 0.8987
21.5109 15.2413 5.1245 0.8981
21.3496 19.3790 5.6046 0.8891
19.2686 22.2767 5.7253 0.8869
19.4629 28.9119 6.7747 0.8676
34.9131 68.4130 14.9297 0.7313
32.7474 89.3643 18.5002 0.6785
20.9912 89.3970 17.8496 0.6878
1.2105 10.9593 2.1432 0.9561
-0.9894 93.2128 18.1198 0.6840
-11.4921 87.0643 17.0704 0.6992
-21.0001 81.6100 16.3802 0.7094
-27.6009 70.6412 14.7421 0.7341
-16.8788 31.4092 6.9310 0.8648
-16.8995 23.9884 5.7038 0.8873
-16.8425 18.6561 4.8856 0.9027
-16.9202 14.7156 4.3588 0.9127
-16.9964 11.5085 3.9899 0.9198
-22.3001 11.4565 4.8733 0.9029
-31.2517 11.5481 6.4762 0.8730
-95.4091 22.6753 19.0622 0.6706
-91.5845 -0.7243 17.8028 0.6885
-36.6177 -19.5501 8.0687 0.8444
-28.0104 -19.6195 6.6474 0.8699
-21.2795 -19.1064 5.5590 0.8900
-20.3015 -23.2156 5.9947 0.8819
-20.2185 -29.6862 6.9816 0.8638
-20.2942 -39.2409 8.5874 0.8353
-27.6246 -74.1394 15.3791 0.7244
-22.8962 -95.1908 19.0309 0.6710
-2.2878 -19.7328 3.8614 0.9222
0.0960 -18.4506 3.5865 0.9276
2.4641 -19.4800 3.8167 0.9231
18.4048 -47.8676 9.9686 0.8114
18.6221 -35.1078 7.7249 0.8505
18.6632 -26.7992 6.3480 0.8754
19.3772 -21.6989 5.6548 0.8882
19.1306 -16.8208 4.9516 0.9014
20.3664 -13.9518 4.7986 0.9043
23.5919 -12.2820 5.1700 0.8973
65.9977 -24.7942 13.7041 0.7503
59.0395 14.6823 11.8257 0.7804
27.6210 10.5344 5.7462 0.8865
23.9248 12.6075 5.2567 0.8957
21.5100 14.8935 5.0855 0.8989
21.5217 19.1145 5.5951 0.8893
19.2673 21.7938 5.6544 0.8882
19.4961 28.2950 6.6792 0.8693
34.9855 66.7600 14.6508 0.7356
33.8907 89.4735 18.5977 0.6771
20.9019 84.8766 16.9913 0.7003
8.3620 68.8666 13.4846 0.7538
0.0190 90.9119 17.6715 0.6904
-10.5968 87.5779 17.1476 0.6980
-20.1451 81.9525 16.4042 0.7090
-26.9224 71.1674 14.7903 0.7334
-16.8464 32.1797 7.0604 0.8624
-16.8979 24.5464 5.7926 0.8857
-16.7757 18.9917 4.9256 0.9019
-16.9193 15.0397 4.4003 0.9119
-16.9285 11.7319 4.0035 0.9195
-21.8425 11.5220 4.8003 0.9043
-30.6522 11.7053 6.3778 0.8749
-46.4708 11.5774 9.3091 0.8227
-92.3229 0.2690 17.9458 0.6865
-93.7344 -11.0845 18.3471 0.6807
-37.4800 -19.4922 8.2117 0.8419
-28.6631 -19.6177 6.7515 0.8680
-22.3468 -19.6320 5.7819 0.8858
-20.3001 -22.7131 5.9214 0.8833
-20.3180 -29.1491 6.9066 0.8652
-26.9483 -50.7533 11.1699 0.7912
-28.4587 -73.9227 15.3972 0.7241
-2.5046 -19.7334 3.8666 0.9221
-0.1020 -18.1394 3.5260 0.9287
2.2721 -19.6703 3.8489 0.9225
18.8202 -50.5754 10.4895 0.8026
18.6374 -36.0746 7.8927 0.8475
18.6615 -27.4249 6.4480 0.8736
18.9581 -21.6978 5.6007 0.8892
18.9109 -16.9941 4.9421 0.9016
20.2394 -14.1891 4.8046 0.9042
23.4164 -12.5146 5.1609 0.8975
65.2081 -25.3066 13.5962 0.7520
59.5427 14.1249 11.8951 0.7793
28.5383 10.5319 5.9130 0.8834
24.5624 12.6057 5.3665 0.8936
21.5090 14.5510 5.0478 0.8996
21.5205 18.7007 5.5419 0.8903
19.3640 21.4312 5.6144 0.8890
19.4593 27.5975 6.5639 0.8714
34.9575 89.3582 18.6513 0.6764
21.7012 84.1873 16.8993 0.7017
8.8953 67.1728 13.1711 0.7587
0.9889 89.5963 17.4168 0.6941
-9.6930 88.0964 17.2276 0.6969
-19.3087 82.3881 16.4486 0.7083
-26.0297 71.1244 14.7220 0.7345
-16.7777 32.9104 7.1805 0.8603
-17.0712 25.3820 5.9459 0.8828
-16.7476 19.3785 4.9786 0.9009
-16.9184 15.3699 4.4430 0.9111
-16.9278 12.0046 4.0339 0.9189
-21.2782 11.5204 4.7034 0.9061
-29.2716 11.5426 6.1162 0.8797
-44.3937 11.5717 8.9176 0.8295
-92.2865 1.2682 17.9404 0.6865
-38.6012 -19.5472 8.4105 0.8384
-29.3366 -19.6158 6.8598 0.8661
-22.8391 -19.6306 5.8540 0.8845
-20.2988 -22.2228 5.8505 0.8846
-20.3162 -28.4843 6.8008 0.8671
-20.2393 -37.1416 8.2219 0.8417
-25.9817 -65.3695 13.6734 0.7508
-0.2976 -18.0948 3.5178 0.9289
2.1982 -21.0248 4.1091 0.9175
18.5464 -51.5399 10.6472 0.8000
18.6347 -37.0476 8.0610 0.8445
18.4567 -27.7655 6.4807 0.8730
18.6272 -21.7906 5.5723 0.8898
19.6394 -18.0367 5.1832 0.8970
20.2288 -14.5108 4.8391 0.9035
23.2172 -12.7331 5.1471 0.8977
32.3100 -12.9432 6.7656 0.8678
63.3055 14.2954 12.6152 0.7676
29.5108 10.5292 6.0905 0.8801
25.2275 12.6039 5.4817 0.8914
21.3622 14.1169 4.9772 0.9009
21.5194 18.2946 5.4903 0.8913
19.5948 21.2203 5.6144 0.8890
19.4576 26.9705 6.4644 0.8733
22.6132 83.9553 16.9009 0.7017
9.6792 67.4725 13.2496 0.7575
1.9181 87.7347 17.0580 0.6994
-8.7809 88.6196 17.3103 0.6957
-18.4768 82.8653 16.5030 0.7075
-27.6149 78.0646 16.0957 0.7136
-16.6860 33.6254 7.2966 0.8582
-16.8947 25.7165 5.9810 0.8822
-16.7185 19.7736 5.0333 0.8999
-16.9175 15.7067 4.4872 0.9102
-16.9270 12.2816 4.0651 0.9183
-20.7363 11.5189 4.6109 0.9079
-28.6313 11.6497 6.0084 0.8817
-42.4841 11.5664 8.5587 0.8358
-92.2179 2.2658 17.9308 0.6867
-39.5884 -19.5117 8.5791 0.8354
-29.8784 -19.5133 6.9366 0.8647
-23.3441 -19.6292 5.9286 0.8831
-20.2974 -21.7438 5.7819 0.8858
-20.3144 -27.8392 6.6989 0.8690
-20.3485 -36.3989 8.1058 0.8437
-25.9760 -63.3491 13.3088 0.7565
-0.4963 -18.1931 3.5377 0.9285
1.9998 -21.3595 4.1700 0.9163
20.0757 -57.7439 11.8833 0.7795
9.7839 -19.9872 4.3256 0.9133
18.4277 -28.3836 6.5780 0.8712
18.6756 -22.3324 5.6588 0.8881
19.5275 -18.3276 5.2057 0.8966
20.2590 -14.8672 4.8846 0.9027
22.7928 -12.8233 5.0835 0.8989
31.1551 -12.8737 6.5526 0.8717
72.8989 -20.2713 14.7078 0.7347
30.6586 10.5661 6.3034 0.8762
25.6262 12.4583 5.5387 0.8904
21.5072 13.8807 4.9756 0.9009
21.5183 17.8961 5.4402 0.8922
19.4449 20.6059 5.5072 0.8910
19.4609 26.3687 6.3703 0.8750
23.6777 84.2635 17.0135 0.7000
10.4570 67.6756 13.3109 0.7565
2.8085 85.9017 16.7065 0.7045
-7.8599 89.1479 17.3958 0.6944
-17.6393 83.3458 16.5596 0.7067
-26.8231 78.5188 16.1285 0.7131
-16.8378 34.8743 7.5276 0.8540
-16.8929 26.3305 6.0809 0.8803
-17.0793 20.6496 5.2089 0.8966
-16.9165 16.0502 4.5328 0.9094
-17.1014 12.6930 4.1398 0.9169
-20.2149 11.5175 4.5224 0.9096
-27.4992 11.5377 5.7967 0.8856
-40.4164 11.4749 8.1667 0.8427
-92.4342 3.2724 17.9786 0.6860
-40.6342 -19.4834 8.7595 0.8322
-30.5935 -19.5113 7.0532 0.8626
-23.8619 -19.6278 6.0058 0.8817
-20.2961 -21.2761 5.7156 0.8871
-20.3126 -27.2133 6.6008 0.8708
-29.2214 -50.9670 11.4198 0.7871
-25.9707 -61.4327 12.9645 0.7620
-0.7193 -18.8702 3.6707 0.9259
1.8682 -22.5861 4.4053 0.9118
20.2699 -60.4022 12.3845 0.7713
18.4286 -38.7025 8.3323 0.8397
18.3622 -28.9642 6.6661 0.8696
18.6743 -22.8284 5.7329 0.8868
19.7045 -18.8990 5.3071 0.8947
20.1022 -15.0896 4.8859 0.9026
22.3314 -12.8839 5.0114 0.9003
30.8634 -13.1461 6.5208 0.8722
69.9273 -20.2631 14.1517 0.7433
31.7615 10.5630 6.5063 0.8725
26.1160 12.3488 5.6153 0.8889
21.5063 13.5527 4.9412 0.9016
21.5172 17.5047 5.3918 0.8931
19.4437 20.1629 5.4447 0.8921
19.4944 25.8243 6.2894 0.8765
26.1631 89.3826 18.1032 0.6842
11.3015 68.2365 13.4445 0.7544
3.6802 84.5297 16.4465 0.7084
-6.9062 89.3826 17.4260 0.6940
-16.7955 83.8298 16.6187 0.7058
-26.0276 78.9752 16.1634 0.7126
-16.8663 35.9211 7.7137 0.8507
-16.8912 26.9655 6.1850 0.8784
-16.9031 20.8929 5.2238 0.8963
-16.9156 16.4008 4.5798 0.9085
-17.1006 12.9818 4.1733 0.9162
-19.7133 11.5161 4.4378 0.9112
-26.6807 11.5354 5.6502 0.8883
-21.6612 6.4041 4.3905 0.9121
-93.3825 4.3188 18.1711 0.6832
-55.6543 -25.9480 11.9361 0.7786
-30.8332 -19.1980 7.0602 0.8624
-24.3936 -19.6263 6.0858 0.8802
-19.7648 -20.2751 5.5038 0.8910
-19.7937 -25.9278 6.3406 0.8755
-20.2317 -34.4187 7.7605 0.8499
-26.1239 -59.9768 12.7162 0.7660
-26.0423 -87.2169 17.6929 0.6901
-0.9095 -18.5764 3.6152 0.9270
1.2308 -17.1359 3.3395 0.9324
3.7451 -19.2323 3.8086 0.9233
20.0945 -62.1011 12.6874 0.7665
18.6154 -40.2108 8.6131 0.8348
18.3602 -29.6667 6.7816 0.8675
18.6728 -23.3375 5.8097 0.8853
21.9280 -21.4921 5.9683 0.8824
19.8132 -15.2107 4.8554 0.9032
21.5237 -12.7304 4.8608 0.9031
30.6319 -13.4410 6.5022 0.8726
67.1586 -20.2512 13.6349 0.7514
71.2042 13.6657 14.0933 0.7442
32.8302 10.5250 6.7015 0.8689
26.2481 12.0653 5.6153 0.8889
21.5054 13.2290 4.9078 0.9022
21.5162 17.1201 5.3447 0.8940
14.3231 14.5346 3.9665 0.9202
19.4928 25.2490 6.2003 0.8781
31.2419 70.6789 15.0209 0.7299
27.2163 89.3797 18.1612 0.6834
11.8589 67.0881 13.2428 0.7576
4.5163 83.0346 16.1641 0.7126
-6.0284 90.8135 17.6912 0.6901
-15.9585 84.3855 16.6936 0.7047
-25.2285 79.4336 16.2004 0.7120
-16.8635 36.9501 7.8950 0.8475
-16.9441 27.7127 6.3139 0.8760
-10.2487 12.9522 3.2105 0.9349
-16.9146 16.7590 4.6284 0.9075
-17.0232 13.2161 4.1891 0.9159
-19.2301 11.5147 4.3568 0.9127
-26.1361 11.6373 5.5612 0.8900
-36.2318 11.1397 7.3681 0.8569
-93.6150 5.3454 18.2266 0.6824
-31.0393 -18.8630 7.0602 0.8624
-24.9398 -19.6248 6.1687 0.8787
-19.7636 -19.8395 5.4434 0.8922
-19.8189 -25.3862 6.2603 0.8770
-20.2241 -33.5684 7.6178 0.8524
-25.9609 -57.8824 12.3310 0.7722
-26.0330 -83.8627 17.0686 0.6992
-1.1190 -18.7066 3.6427 0.9265
1.1775 -19.3201 3.7624 0.9242
20.2571 -64.9978 13.2337 0.7577
18.6227 -41.3954 8.8232 0.8311
18.7169 -30.9872 7.0368 0.8628
18.6714 -23.8606 5.8893 0.8839
21.6713 -21.7053 5.9620 0.8825
20.0040 -15.7042 4.9435 0.9016
21.2592 -12.8865 4.8323 0.9037
30.3467 -13.7094 6.4728 0.8731
65.7981 -20.6204 13.4032 0.7550
27.5184 12.5975 4.7935 0.8846
19.4559 11.9267 3.6144 0.9117
21.5160 17.0656 4.3496 0.8947
14.3448 14.5116 3.2318 0.9207
20.5613 26.5478 5.3184 0.8729
19.5082 32.6648 6.0260 0.8572
27.3675 89.3792 14.8050 0.6848
12.2704 68.7940 11.0679 0.7535
4.6357 82.8640 13.1449 0.7145
-5.8616 90.4178 14.3509 0.6928
-15.8771 84.6724 13.6445 0.7055
-24.9883 79.1012 13.1387 0.7147
-16.8630 37.1010 6.4547 0.8479
-16.2435 26.6594 4.9445 0.8812
-16.9016 21.4281 4.3226 0.8954
-16.9144 16.8108 3.7771 0.9079
-16.9688 13.2160 3.4066 0.9166
-19.1622 11.5145 3.5408 0.9134
-25.7937 11.5330 4.4751 0.8919
-37.3926 11.5602 6.1990 0.8534
-96.1787 5.6417 15.2594 0.6769
-43.1604 -19.4764 7.4997 0.8255
-31.6797 -19.1849 5.8659 0.8607
-25.0170 -19.6228 5.0358 0.8792
-19.9489 -19.9635 4.4700 0.8920
-19.9643 -25.4909 5.1282 0.8771
-20.3305 -33.6270 6.2237 0.8529
-20.2985 -45.0704 7.8290 0.8186
-10.7050 -34.2973 5.6906 0.8646
-3.6661 -59.7325 9.4785 0.7848
1.1488 -19.3423 3.0690 0.9245
20.2561 -65.3507 10.8364 0.7580
14.3558 -32.0441 5.5613 0.8674
18.6516 -30.9879 5.7285 0.8637
18.6712 -23.9369 4.8082 0.8843
21.6038 -21.7051 4.8504 0.8834
19.4862 -15.3467 3.9286 0.9044
22.2420 -13.5296 4.1234 0.8999
30.2095 -13.7040 5.2540 0.8743
63.6175 -20.0457 10.5644 0.7633
67.7046 -12.6441 10.9087 0.7566
72.0592 12.9073 11.5947 0.7434
33.8869 10.4032 5.6144 0.8663
28.2101 12.5466 4.8900 0.8825
19.4199 11.6174 3.5842 0.9124
21.4828 16.6636 4.3061 0.8957
19.5805 19.3840 4.3639 0.8944
21.0239 26.5465 5.3634 0.8718
19.5060 31.8723 5.9184 0.8596
28.4284 89.3763 14.8547 0.6840
16.9727 89.5397 14.4342 0.6914
5.5260 82.7131 13.1297 0.7148
-4.9089 90.9643 14.4283 0.6915
-15.0172 85.1657 13.6970 0.7045
-24.1892 79.5597 13.1706 0.7141
-16.8708 38.2108 6.6156 0.8444
-16.4973 27.7476 5.1129 0.8774
-16.9052 21.9165 4.3839 0.8940
-16.9134 17.1777 3.8181 0.9070
-16.9237 13.4776 3.4266 0.9161
-18.6986 11.5133 3.4779 0.9149
-25.0577 11.5309 4.3688 0.8943
-36.1312 11.6001 6.0103 0.8575
-44.4336 -19.4748 7.6839 0.8216
-32.4640 -19.1827 5.9723 0.8584
-25.5007 -19.5600 5.0902 0.8780
-19.9477 -19.5348 4.4221 0.8931
-19.9627 -24.9282 5.0582 0.8787
-19.9019 -32.1274 5.9857 0.8581
-20.2463 -43.6854 7.6261 0.8228
-25.9718 -80.1491 13.3442 0.7109
-2.7031 -37.4144 5.9413 0.8591
1.1378 -23.4419 3.7172 0.9093
20.0493 -67.2490 11.1145 0.7526
13.9314 -32.0213 5.5309 0.8681
18.6494 -31.7574 5.8331 0.8614
18.6697 -24.4768 4.8757 0.8828
21.1398 -21.7038 4.7987 0.8845
20.8935 -16.8246 4.2487 0.8971
22.1084 -13.7783 4.1260 0.8999
30.2912 -14.1384 5.2945 0.8734
63.5592 -20.7862 10.5914 0.7628
64.8271 -12.8344 10.4669 0.7652
72.0569 12.1034 11.5726 0.7439
35.6288 10.5173 5.8838 0.8603
28.3268 12.2330 4.8870 0.8825
19.4544 11.3538 3.5676 0.9128
21.5139 16.3178 4.2767 0.8964
20.0080 19.3828 4.4121 0.8933
21.3870 26.4124 5.3828 0.8714
19.4688 31.0516 5.8048 0.8621
28.1106 85.1744 14.2060 0.6954
6.4680 83.2535 13.2258 0.7131
-3.9457 91.5169 14.5083 0.6901
-14.1505 85.6628 13.7515 0.7035
-23.3965 80.0560 13.2100 0.7134
-16.8568 39.3258 6.7767 0.8409
-16.5331 28.5058 5.2193 0.8751
-16.9038 22.4123 4.4462 0.8925
-17.0874 17.7344 3.9005 0.9051
-16.9228 13.7789 3.4564 0.9154
-18.5307 11.6884 3.4700 0.9151
-24.3558 11.5290 4.2679 0.8966
-34.7040 11.5577 5.7934 0.8623
-95.8321 19.5121 15.4897 0.6730
-45.9457 -19.5474 7.9083 0.8169
-34.0102 -19.6028 6.2174 0.8530
-25.7059 -19.2791 5.0892 0.8780
-20.1339 -19.2946 4.4168 0.8932
-20.3055 -24.8013 5.0767 0.8783
-19.8998 -31.3605 5.8826 0.8603
-19.5287 -40.9687 7.1883 0.8321
-25.9257 -77.1491 12.8907 0.7192
1.3383 -35.5050 5.6274 0.8660
20.2234 -70.6160 11.6341 0.7427
13.5177 -32.0133 5.5039 0.8687
11.2546 -19.6491 3.5865 0.9124
18.6681 -25.0321 4.9458 0.8812
20.6682 -21.6845 4.7446 0.8858
19.3420 -15.9235 3.9681 0.9035
22.1067 -14.1118 4.1539 0.8992
30.1303 -14.4625 5.2935 0.8734
63.6960 -21.5969 10.6526 0.7616
65.4345 -13.6924 10.5894 0.7628
73.8049 11.5771 11.8325 0.7389
37.2116 10.5480 6.1260 0.8550
28.3258 11.8704 4.8644 0.8830
19.4536 11.0728 3.5453 0.9133
21.5129 15.9532 4.2420 0.8972
20.4450 19.3816 4.4620 0.8922
21.5308 26.0093 5.3478 0.8722
19.4429 30.2771 5.6991 0.8644
28.8838 84.4353 14.1341 0.6967
20.2521 95.4932 15.4610 0.6735
7.4241 83.8019 13.3249 0.7113
-2.9546 91.5497 14.5076 0.6901
-13.2768 86.1641 13.8081 0.7025
-22.6621 80.7802 13.2883 0.7119
-16.9081 40.6551 6.9738 0.8367
-16.3722 28.9457 5.2671 0.8740
-16.9024 22.9223 4.5108 0.8911
-17.0424 18.0751 3.9347 0.9043
-16.9220 14.0856 3.4872 0.9147
-18.0917 11.6872 3.4113 0.9165
-23.6854 11.5271 4.1721 0.8988
-33.6314 11.6064 5.6350 0.8658
-94.1360 20.2305 15.2501 0.6771
-95.0788 -14.3872 15.2304 0.6774
-47.2015 -19.4810 8.0877 0.8132
-34.8731 -19.6004 6.3360 0.8504
-26.2788 -19.2679 5.1611 0.8764
-20.5738 -19.2934 4.4672 0.8921
-20.3024 -24.2570 5.0100 0.8798
-19.9971 -30.7724 5.8126 0.8619
-19.6151 -40.0285 7.0602 0.8348
-26.0076 -74.7047 12.5286 0.7259
0.6121 -22.7890 3.6107 0.9118
5.9453 -40.0214 6.4083 0.8489
20.0335 -72.9263 11.9783 0.7362
18.8233 -45.9604 7.8663 0.8178
18.6449 -33.3843 6.0563 0.8565
18.8203 -25.8146 5.0599 0.8786
20.3931 -21.8649 4.7355 0.8860
19.8964 -16.7445 4.1187 0.9000
22.1234 -14.4619 4.1862 0.8985
30.1183 -14.8600 5.3193 0.8728
63.8390 -22.4187 10.7165 0.7603
64.6000 -14.2492 10.4776 0.7650
77.2216 11.2579 12.3600 0.7290
38.7918 10.5436 6.3669 0.8498
28.3248 11.5112 4.8425 0.8835
19.4528 10.7953 3.5237 0.9138
21.5119 15.5945 4.2082 0.8980
20.8920 19.3803 4.5135 0.8910
21.5293 25.4417 5.2787 0.8737
19.4791 29.6232 5.6153 0.8662
34.3756 69.1998 12.2380 0.7313
29.8927 84.3903 14.1799 0.6959
20.3778 91.2095 14.8023 0.6849
8.3945 84.3586 13.4271 0.7094
-1.9711 91.9255 14.5629 0.6891
-12.3959 86.6694 13.8668 0.7015
-9.7364 36.2087 5.9386 0.8591
-28.3090 70.2019 11.9889 0.7360
-16.8195 30.5025 5.5169 0.8684
-16.9010 23.4475 4.5779 0.8895
-11.9108 12.9097 2.7820 0.9313
-16.9211 14.3977 3.5189 0.9140
-17.4008 11.5096 3.3043 0.9190
-23.1549 11.5806 4.1005 0.9005
-31.9671 11.4208 5.3765 0.8716
-92.6294 20.9582 15.0419 0.6807
-90.9395 -12.7556 14.5444 0.6894
-48.7910 -19.5217 8.3234 0.8083
-35.7698 -19.5979 6.4600 0.8477
-26.8011 -19.2083 5.2225 0.8750
-21.0240 -19.2921 4.5194 0.8909
-20.3219 -23.7530 4.9511 0.8811
-20.3219 -30.5436 5.8106 0.8619
-20.0472 -39.8139 7.0602 0.8348
-26.6378 -73.9278 12.4459 0.7274
-21.8094 -95.1938 15.4679 0.6733
0.3635 -22.6809 3.5928 0.9122
7.8165 -56.8450 9.0881 0.7926
20.2241 -76.8677 12.5890 0.7248
18.6074 -46.8734 7.9876 0.8153
18.4121 -33.8224 6.0993 0.8556
18.6649 -26.1924 5.0940 0.8779
19.9813 -21.8937 4.6947 0.8869
19.3460 -16.6423 4.0419 0.9018
20.5936 -13.7824 3.9248 0.9045
25.2628 -12.8062 4.4860 0.8916
33.3574 -12.1214 5.6213 0.8661
65.2957 -15.1457 10.6164 0.7623
40.5016 10.5389 6.6284 0.8441
28.3238 11.1551 4.8214 0.8840
19.5825 10.5917 3.5262 0.9138
21.5109 15.2413 4.1755 0.8987
21.3495 19.3790 4.5667 0.8898
21.5277 24.8884 5.2120 0.8752
19.7986 29.4106 5.6153 0.8662
34.9117 68.4102 12.1645 0.7327
12.6586 34.5440 5.8270 0.8616
20.2730 86.3384 14.0466 0.6983
1.2104 10.9584 1.7462 0.9563
-0.9875 93.0350 14.7361 0.6861
-11.5073 87.1792 13.9276 0.7004
-21.0278 81.7177 13.3645 0.7105
-32.8973 84.1969 14.3172 0.6934
-16.3944 30.5078 5.4855 0.8691
-16.8995 23.9884 4.6475 0.8880
-16.9091 18.7299 3.9966 0.9029
-16.9202 14.7156 3.5516 0.9132
-16.9964 11.5085 3.2510 0.9202
-22.4308 11.5236 3.9941 0.9029
-31.2517 11.5481 5.2769 0.8738
-92.8313 22.0627 15.1126 0.6795
-93.6379 -0.7406 14.8312 0.6844
-93.9927 -12.1479 15.0108 0.6813
-50.4504 -19.5548 8.5698 0.8032
-36.7024 -19.5953 6.5897 0.8449
-27.3317 -19.1441 5.2852 0.8736
-21.7981 -19.5720 4.6399 0.8881
-20.3890 -23.3157 4.9057 0.8821
-20.3199 -29.8351 5.7173 0.8640
-20.2448 -39.1454 6.9801 0.8365
-27.6134 -74.1094 12.5261 0.7259
-22.8962 -95.1908 15.5067 0.6727
0.1857 -35.6911 5.6530 0.8654
4.8410 -38.2711 6.1099 0.8554
18.5853 -48.3369 8.2022 0.8108
18.6400 -35.1417 6.3004 0.8512
18.6632 -26.7992 5.1724 0.8761
19.3610 -21.6808 4.6038 0.8889
19.5904 -17.2251 4.1316 0.8997
20.4872 -14.0346 3.9332 0.9043
24.8019 -12.9120 4.4287 0.8929
32.3177 -12.1412 5.4679 0.8695
57.5481 14.3114 9.3924 0.7865
28.3228 10.8021 4.8011 0.8845
20.0967 10.5902 3.5979 0.9121
19.4250 13.4499 3.7421 0.9087
21.5217 19.1145 4.5590 0.8900
21.5262 24.3489 5.1475 0.8767
20.1159 29.1945 5.6153 0.8662
36.0235 68.7407 12.2919 0.7303
13.0841 34.5429 5.8504 0.8611
20.7638 84.3159 13.7533 0.7035
10.3886 85.5570 13.6504 0.7054
0.0190 90.9119 14.3990 0.6920
-10.6108 87.6934 13.9906 0.6993
-20.2036 82.1905 13.4052 0.7098
-32.6615 86.3385 14.6205 0.6881
-16.8765 32.2372 5.7632 0.8630
-16.8979 24.5464 4.7199 0.8863
-11.4352 12.9457 2.7358 0.9324
-16.9742 15.0884 3.5970 0.9121
-16.9285 11.7319 3.2622 0.9200
-21.8425 11.5220 3.9113 0.9048
-29.7288 11.3527 5.0402 0.8791
-46.4708 11.5774 7.5852 0.8237
-93.7137 0.2731 14.8429 0.6842
-92.9010 -10.9859 14.8166 0.6846
-51.8441 -19.4522 8.7703 0.7991
-37.1364 -19.3135 6.6297 0.8441
-28.6624 -19.6172 5.5011 0.8688
-22.4409 -19.7147 4.7311 0.8861
-20.4651 -22.8977 4.8640 0.8831
-20.3180 -29.1490 5.6276 0.8660
-19.8641 -37.4112 6.7088 0.8424
-28.4587 -73.9227 12.5459 0.7256
-23.9882 -95.1878 15.5476 0.6720
-0.1321 -23.4828 3.7194 0.9093
4.4312 -38.3613 6.1162 0.8552
18.7905 -50.4954 8.5335 0.8040
18.6374 -36.0746 6.4311 0.8484
18.6108 -27.3504 5.2396 0.8746
18.9581 -21.6978 4.5636 0.8899
19.3279 -17.3688 4.1157 0.9001
20.2810 -14.2183 3.9230 0.9046
24.6751 -13.1874 4.4313 0.8929
31.0744 -12.0596 5.2793 0.8737
65.1213 -16.5987 10.6440 0.7617
60.3512 14.3167 9.8240 0.7779
28.5383 10.5319 4.8180 0.8841
20.6323 10.5887 3.6731 0.9104
19.4242 13.1406 3.7144 0.9094
21.5205 18.7007 4.5156 0.8910
21.3793 23.6617 5.0508 0.8788
19.4592 27.5975 5.3483 0.8722
19.5182 36.2844 6.5256 0.8463
34.9575 89.3582 15.1974 0.6780
23.0427 89.3913 14.6210 0.6881
11.4428 86.4101 13.8055 0.7026
0.9889 89.5963 14.1915 0.6957
-9.7057 88.2126 14.0558 0.6981
-19.3740 82.6664 13.4479 0.7090
-30.8827 84.3849 14.2322 0.6950
-16.9309 33.2109 5.9042 0.8599
-16.8963 25.1220 4.7952 0.8846
-16.9068 19.5627 4.0952 0.9006
-16.9732 15.4197 3.6320 0.9113
-16.9278 12.0046 3.2869 0.9194
-21.2783 11.5204 3.8324 0.9067
-28.9325 11.4089 4.9259 0.8817
-44.0485 11.4817 7.2097 0.8316
-94.3735 1.2969 14.9487 0.6823
-91.9530 -9.8656 14.6475 0.6876
-37.7486 -19.1155 6.7017 0.8425
-29.3360 -19.6155 5.5894 0.8668
-23.0657 -19.8254 4.8173 0.8841
-20.4972 -22.4400 4.8137 0.8842
-20.3155 -28.4833 5.5412 0.8679
-19.9142 -36.5451 6.5918 0.8449
-20.2785 -51.0205 8.6957 0.8006
-25.0861 -95.1847 15.5906 0.6712
-0.6054 -36.8028 5.8298 0.8615
3.9560 -37.8372 6.0255 0.8572
18.5176 -51.4599 8.6621 0.8013
18.4272 -36.6349 6.4951 0.8470
18.6090 -27.9947 5.3242 0.8727
18.6272 -21.7906 4.5404 0.8904
19.3184 -17.7419 4.1543 0.8992
20.5941 -14.7728 4.0142 0.9024
24.3470 -13.3527 4.3980 0.8936
31.9121 -12.7838 5.4449 0.8700
65.8512 -17.5459 10.7937 0.7588
63.3076 14.2958 10.2794 0.7689
29.5109 10.5292 4.9627 0.8808
21.1216 10.5525 3.7396 0.9088
19.4233 12.8357 3.6874 0.9100
21.5194 18.2946 4.4736 0.8919
21.5233 23.3089 5.0250 0.8794
19.4575 26.9704 5.2673 0.8740
19.5156 35.3569 6.3964 0.8491
22.7011 84.2815 13.8246 0.7022
12.4813 87.0058 13.9214 0.7005
1.9280 88.1870 13.9708 0.6996
-8.7925 88.7365 14.1233 0.6969
-18.5393 83.1452 13.4923 0.7082
-27.6577 78.1856 13.1354 0.7147
-16.8716 33.9995 6.0116 0.8575
-16.8281 25.6152 4.8542 0.8833
-16.9604 20.0597 4.1606 0.8991
-16.9271 15.7156 3.6583 0.9107
-16.9270 12.2816 3.3123 0.9188
-20.9018 11.6109 3.7870 0.9077
-28.1965 11.4728 4.8214 0.8840
-42.5137 11.5744 6.9786 0.8366
-93.5555 2.2987 14.8222 0.6845
-94.1156 -9.0684 14.9755 0.6819
-39.5372 -19.4864 6.9813 0.8365
-30.0324 -19.6139 5.6812 0.8648
-23.5342 -19.7891 4.8701 0.8829
-20.4268 -21.8824 4.7412 0.8858
-20.3137 -27.8383 5.4582 0.8697
-20.3382 -36.3803 6.6014 0.8447
-20.2991 -49.5044 8.4743 0.8052
-26.1909 -95.1841 15.6360 0.6704
-1.0060 -36.8812 5.8436 0.8612
3.4787 -37.1567 5.9108 0.8597
20.0459 -57.6583 9.6684 0.7810
18.4021 -37.5933 6.6293 0.8441
18.6088 -28.6624 5.4125 0.8708
18.6756 -22.3324 4.6109 0.8888
20.1278 -18.8910 4.3721 0.8942
20.6105 -15.1252 4.0491 0.9016
24.1730 -13.5998 4.3930 0.8938
53.9433 -22.2902 9.2445 0.7895
72.8989 -20.2712 11.9841 0.7361
73.0100 15.6583 11.8266 0.7390
33.5134 11.5500 5.6144 0.8663
25.6262 12.4583 4.5130 0.8910
19.4577 12.5580 3.6679 0.9105
21.5183 17.8961 4.4328 0.8928
19.4449 20.6058 4.4874 0.8916
19.5951 26.5505 5.2264 0.8749
19.4781 34.4032 6.2617 0.8521
24.1477 85.9361 14.1381 0.6966
13.4862 87.2795 13.9878 0.6993
2.8085 85.9016 13.6128 0.7060
-7.8703 89.2655 14.1931 0.6956
-17.6988 83.6274 13.5387 0.7074
-26.6888 78.1257 13.0760 0.7158
-16.9237 35.0521 6.1649 0.8542
-16.7651 26.1313 4.9174 0.8818
-16.9591 20.5043 4.2144 0.8978
-16.9165 16.0502 3.6934 0.9099
-17.1014 12.6930 3.3731 0.9174
-20.2149 11.5175 3.6849 0.9101
-27.4992 11.5377 4.7233 0.8862
-41.1310 11.6778 6.7720 0.8410
-94.5317 3.3466 14.9817 0.6818
-40.1946 -19.2726 7.0602 0.8348
-30.7512 -19.6119 5.7767 0.8627
-23.9650 -19.7126 4.9148 0.8819
-20.3339 -21.3157 4.6658 0.8875
-19.8602 -26.6072 5.2587 0.8742
-20.3356 -35.4687 6.4755 0.8474
-20.3489 -48.1344 8.2770 0.8093
-0.9434 -24.7511 3.9230 0.9046
2.9424 -35.5720 5.6533 0.8654
20.0649 -59.7913 9.9890 0.7746
18.3783 -38.5970 6.7708 0.8410
18.4552 -29.1110 5.4592 0.8697
18.7862 -22.9652 4.6993 0.8868
19.9791 -19.1624 4.3846 0.8939
19.9064 -14.9427 3.9423 0.9041
22.9844 -13.2607 4.2028 0.8981
30.0847 -12.8144 5.1792 0.8760
69.9273 -20.2631 11.5310 0.7446
73.1752 14.8669 11.8266 0.7390
33.6364 11.1866 5.6144 0.8663
26.6471 12.5999 4.6685 0.8875
19.4569 12.2612 3.6425 0.9111
21.5172 17.5047 4.3933 0.8937
19.4437 20.1629 4.4364 0.8928
20.0416 26.5493 5.2686 0.8740
19.5108 33.6072 6.1549 0.8544
26.1631 89.3826 14.7508 0.6858
11.3394 68.4656 10.9916 0.7550
3.6802 84.5297 13.4009 0.7099
-6.9385 89.8001 14.2653 0.6944
-16.8523 84.1130 13.5870 0.7065
-25.8973 78.5798 13.1043 0.7153
-16.8663 35.9210 6.2853 0.8515
-16.5290 26.3873 4.9316 0.8815
-16.9030 20.8928 4.2565 0.8969
-16.9156 16.4007 3.7317 0.9090
-17.1006 12.9818 3.4005 0.9167
-19.7133 11.5161 3.6160 0.9117
-26.6807 11.5354 4.6039 0.8889
-21.6583 6.4032 3.5771 0.9126
-40.4009 -18.8363 7.0602 0.8348
-31.4281 -19.5683 5.8637 0.8608
-24.4119 -19.6410 4.9625 0.8808
-19.9503 -20.4654 4.5267 0.8907
-19.9184 -26.0912 5.1990 0.8755
-20.3332 -34.5913 6.3551 0.8500
-25.9657 -59.6135 10.2986 0.7685
-26.0424 -87.2169 14.4164 0.6917
-2.8716 -58.6520 9.3007 0.7883
1.5148 -21.0901 3.3489 0.9179
20.0873 -62.0788 10.3342 0.7678
18.6079 -40.1947 7.0153 0.8358
18.6539 -30.1413 5.6142 0.8663
18.7848 -23.4775 4.7622 0.8854
20.7510 -20.3384 4.6020 0.8890
19.6166 -15.0598 3.9170 0.9047
22.8277 -13.5016 4.2006 0.8982
30.5071 -13.3862 5.2765 0.8738
67.1727 -20.2554 11.1123 0.7527
73.3573 14.0790 11.8307 0.7390
33.7556 10.8217 5.6144 0.8663
27.4066 12.5978 4.7774 0.8850
19.4560 11.9683 3.6179 0.9116
21.5162 17.1201 4.3550 0.8946
14.3219 14.5334 3.2319 0.9207
20.4957 26.5480 5.3121 0.8730
19.5085 32.7806 6.0418 0.8569
27.2163 89.3797 14.7981 0.6850
15.6896 88.7586 14.2759 0.6942
4.5163 83.0346 13.1708 0.7141
-5.9970 90.3402 14.3400 0.6930
-15.9995 84.6022 13.6372 0.7056
-25.1022 79.0359 13.1343 0.7147
-16.8634 36.9500 6.4330 0.8483
-16.2437 26.5673 4.9320 0.8815
-16.9018 21.3603 4.3141 0.8956
-16.9146 16.7590 3.7713 0.9081
-17.0232 13.2161 3.4134 0.9164
-19.2301 11.5147 3.5500 0.9132
-25.9024 11.5333 4.4908 0.8915
-37.6014 11.5608 6.2306 0.8527
-96.0215 5.4828 15.2331 0.6774
-41.4016 -18.7601 7.1992 0.8319
-31.5695 -19.1852 5.8510 0.8610
-24.9374 -19.6229 5.0259 0.8794
-19.9491 -20.0257 4.4770 0.8918
-19.9645 -25.5727 5.1385 0.8769
-20.3308 -33.7455 6.2398 0.8525
-20.3127 -45.2892 7.8615 0.8179
-26.0330 -83.8627 13.9078 0.7007
-2.2938 -38.3447 6.0841 0.8559
1.1762 -19.2989 3.0623 0.9247
20.2571 -64.9978 10.7830 0.7590
14.3924 -31.9922 5.5562 0.8676
18.6519 -30.8796 5.7138 0.8641
18.6714 -23.8606 4.7987 0.8845
21.6713 -21.7053 4.8580 0.8832
19.5178 -15.3225 3.9301 0.9044
22.2188 -13.4682 4.1152 0.9001
30.2282 -13.6559 5.2536 0.8743
64.6102 -20.2481 10.7240 0.7602
23.0396 10.5472 3.1112 0.9029
19.4559 11.9267 2.8020 0.9121
19.4657 15.4393 3.0506 0.9047
14.3436 14.5104 2.5052 0.9211
20.5613 26.5478 4.1230 0.8734
25.0015 81.6523 10.4851 0.7088
14.6664 82.2270 10.2555 0.7142
4.6269 82.7059 10.1709 0.7162
-6.0090 92.6914 11.4050 0.6877
-18.0227 96.1148 12.0071 0.6743
-25.2819 80.0304 10.3052 0.7130
-16.7139 36.7730 4.9597 0.8498
-16.3794 26.8825 3.8652 0.8809
-16.9016 21.4281 3.3510 0.8958
-16.9144 16.8108 2.9281 0.9084
-16.9688 13.2160 2.6409 0.9170
-19.1621 11.5145 2.7449 0.9138
-26.1004 11.6701 3.5105 0.8912
-37.3926 11.5602 4.8056 0.8541
-42.8455 -19.3342 5.7716 0.8274
-31.8125 -19.2654 4.5665 0.8608
-25.1008 -19.6885 3.9170 0.8794
-19.9489 -19.9636 3.4653 0.8925
-19.9643 -25.4909 3.9756 0.8777
-20.4064 -33.7524 4.8428 0.8530
-20.3627 -45.2130 6.0885 0.8189
-20.3697 -65.2616 8.3944 0.7592
-2.4301 -39.5949 4.8708 0.8523
1.1483 -19.3333 2.3780 0.9249
20.2561 -65.3507 8.4007 0.7590
14.3517 -32.0348 4.3103 0.8681
18.6635 -31.0078 4.4437 0.8643
18.6712 -23.9369 3.7275 0.8848
21.6038 -21.7051 3.7602 0.8839
20.3083 -15.9942 3.1740 0.9011
22.1561 -13.4774 3.1842 0.9008
30.1171 -13.6621 4.0606 0.8752
64.2567 -20.2471 8.2721 0.7622
66.4990 -12.4189 8.3062 0.7614
72.0592 12.9073 8.9886 0.7445
35.4117 10.8713 4.5483 0.8613
23.7883 10.5800 3.1967 0.9004
19.4199 11.6174 2.7786 0.9128
19.4647 15.0982 3.0247 0.9055
19.4764 19.2808 3.3650 0.8954
21.0239 26.5465 4.1579 0.8724
25.9490 81.5814 10.5114 0.7082
15.5861 82.2244 10.2757 0.7137
5.4952 82.2525 10.1218 0.7173
-5.0324 93.2516 11.4665 0.6864
-16.6243 94.2800 11.7547 0.6799
-24.8888 81.8609 10.5056 0.7084
-16.6580 37.7287 5.0639 0.8469
-16.8872 28.4034 4.0573 0.8753
-16.9052 21.9165 3.3985 0.8944
-16.9134 17.1777 2.9599 0.9074
-16.9237 13.4776 2.6564 0.9165
-18.6985 11.5132 2.6962 0.9153
-25.0577 11.5309 3.3868 0.8948
-36.0103 11.5613 4.6438 0.8586
-43.6959 -19.1515 5.8579 0.8251
-32.6002 -19.2632 4.6494 0.8585
-25.5007 -19.5600 3.9461 0.8785
-19.9477 -19.5348 3.4281 0.8936
-19.9627 -24.9282 3.9213 0.8792
-20.3259 -32.8117 4.7391 0.8559
-19.9322 -43.0076 5.8202 0.8261
-20.3103 -62.6777 8.0898 0.7668
1.7957 -36.9954 4.5478 0.8613
20.0493 -67.2490 8.6163 0.7537
18.6188 -42.7951 5.7303 0.8285
18.6494 -31.7574 4.5220 0.8621
18.6697 -24.4768 3.7798 0.8833
21.1398 -21.7038 3.7201 0.8851
20.1086 -16.1926 3.1700 0.9012
24.9995 -15.5802 3.6169 0.8881
29.4860 -13.7626 3.9954 0.8771
63.9796 -20.9237 8.2651 0.7624
65.4900 -12.9656 8.1972 0.7641
72.0569 12.1034 8.9714 0.7449
35.6289 10.5173 4.5613 0.8610
24.4143 10.5434 3.2653 0.8984
19.4192 11.3333 2.7607 0.9134
19.4638 14.7629 2.9995 0.9062
19.4752 18.8666 3.3293 0.8965
21.3870 26.4124 4.1729 0.8720
21.5408 34.3562 4.9790 0.8492
26.9200 81.5668 10.5465 0.7074
16.5094 82.2218 10.2971 0.7132
6.3900 82.2500 10.1295 0.7172
-3.9822 92.3649 11.3515 0.6890
-15.3118 92.6931 11.5355 0.6848
-24.0625 82.3349 10.5323 0.7077
-16.8568 39.3258 5.2535 0.8416
-17.0600 29.4142 4.1751 0.8719
-17.0788 22.6442 3.4825 0.8920
-17.0874 17.7343 3.0238 0.9055
-16.9228 13.7789 2.6795 0.9158
-18.5307 11.6884 2.6901 0.9155
-24.3558 11.5290 3.3086 0.8971
-34.7040 11.5577 4.4912 0.8629
-45.9976 -19.5695 6.1377 0.8175
-34.1307 -19.6722 4.8370 0.8532
-25.7059 -19.2791 3.9453 0.8785
-20.1339 -19.2946 3.4240 0.8937
-20.3038 -24.7992 3.9353 0.8788
-19.9810 -31.4885 4.5790 0.8605
-20.1110 -42.1902 5.7387 0.8283
-20.3040 -60.4204 7.8264 0.7735
1.4158 -37.5603 4.6151 0.8594
20.2413 -70.6785 9.0271 0.7436
18.4510 -43.6965 5.8239 0.8260
18.7590 -32.7509 4.6342 0.8589
18.6681 -25.0321 3.8342 0.8818
20.6855 -21.7026 3.6813 0.8862
19.9322 -16.4094 3.1700 0.9012
22.2856 -14.2260 3.2463 0.8989
29.5251 -14.1720 4.0212 0.8764
64.2005 -21.7680 8.3236 0.7609
64.1818 -13.4302 8.0512 0.7678
74.7681 11.7282 9.2926 0.7371
43.9997 12.4722 5.6153 0.8317
25.2368 10.5760 3.3598 0.8956
19.4184 11.0528 2.7435 0.9139
19.4629 14.4330 2.9751 0.9070
19.4741 18.4611 3.2948 0.8975
21.5308 26.0093 4.1458 0.8728
21.5385 33.5404 4.8943 0.8516
27.8975 81.5518 10.5830 0.7066
17.3930 82.0119 10.2937 0.7133
7.2864 82.2475 10.1383 0.7169
-2.9982 92.8976 11.4123 0.6876
-13.6596 88.6483 11.0131 0.6966
-23.2319 82.8114 10.5605 0.7071
-16.9081 40.6551 5.4063 0.8374
-16.8832 29.8492 4.2107 0.8709
-17.0774 23.1596 3.5331 0.8905
-17.0864 18.1218 3.0582 0.9045
-16.9220 14.0856 2.7034 0.9151
-18.0917 11.6872 2.6446 0.9169
-23.6854 11.5271 3.2343 0.8993
-33.4804 11.5543 4.3488 0.8670
-47.4062 -19.5655 6.2970 0.8133
-35.0486 -19.6991 4.9366 0.8504
-26.2919 -19.2775 4.0030 0.8769
-20.5738 -19.2934 3.4631 0.8926
-20.3929 -24.3651 3.9012 0.8798
-20.0550 -30.8615 4.5192 0.8621
-20.3525 -41.5333 5.6790 0.8299
-20.3065 -58.3289 7.5835 0.7797
0.9867 -36.7377 4.5125 0.8623
5.7316 -38.5830 4.7894 0.8545
20.0038 -72.8182 9.2722 0.7376
18.6114 -45.4430 6.0295 0.8205
18.6270 -33.3521 4.6905 0.8573
18.8522 -25.8583 3.9292 0.8790
20.4397 -21.9148 3.6795 0.8862
19.7120 -16.5893 3.1634 0.9014
20.9710 -13.7086 3.0763 0.9040
29.5780 -14.5934 4.0497 0.8755
54.6894 -19.2057 7.1170 0.7917
62.6538 -13.8199 7.8778 0.7722
80.1062 11.6784 9.9398 0.7216
44.1321 11.9951 5.6153 0.8317
26.0182 10.5738 3.4484 0.8930
19.4176 10.7757 2.7267 0.9144
19.4620 14.1084 2.9515 0.9077
19.4378 18.0313 3.2554 0.8987
19.4515 22.9864 3.6973 0.8857
21.5363 32.7517 4.8129 0.8539
28.8844 81.5438 10.6219 0.7057
18.3686 82.2167 10.3438 0.7121
8.1842 82.2450 10.1483 0.7167
-1.9929 92.9405 11.4143 0.6875
-12.4945 87.3590 10.8355 0.7007
-22.3966 83.2905 10.5901 0.7064
-32.9028 81.5938 10.8023 0.7015
-16.6844 30.2576 4.2425 0.8700
-16.9010 23.4475 3.5489 0.8900
-11.9091 12.9079 2.1564 0.9317
-16.9211 14.3977 2.7280 0.9144
-17.4008 11.5096 2.5616 0.9194
-23.3975 11.7019 3.2121 0.8999
-32.3319 11.5511 4.2156 0.8708
-48.5549 -19.4272 6.4213 0.8100
-35.8350 -19.6336 5.0171 0.8482
-26.8999 -19.2790 4.0635 0.8751
-21.0240 -19.2921 3.5035 0.8914
-20.5556 -24.0261 3.8824 0.8804
-20.2601 -30.4507 4.4908 0.8630
-20.3488 -40.4128 5.5556 0.8333
-19.5658 -54.3010 7.0869 0.7925
-21.8094 -95.1938 11.9912 0.6746
0.5894 -36.7739 4.5158 0.8622
5.1982 -37.8038 4.6854 0.8575
20.2241 -76.8677 9.7594 0.7259
18.6074 -46.8734 6.1922 0.8161
18.4420 -33.8772 4.7360 0.8560
18.6649 -26.1924 3.9490 0.8784
20.0088 -21.9238 3.6445 0.8873
19.9097 -17.1273 3.2247 0.8996
20.6828 -13.8420 3.0558 0.9046
28.7958 -14.5971 3.9640 0.8780
58.0705 -21.1018 7.5863 0.7796
62.8151 -14.5703 7.9175 0.7712
44.2593 11.5167 5.6153 0.8317
26.8419 10.5715 3.5422 0.8902
19.5184 10.5570 2.7246 0.9145
19.4611 13.7889 2.9285 0.9084
19.4719 17.6747 3.2289 0.8994
19.4853 22.5271 3.6571 0.8869
21.5342 31.9887 4.7348 0.8561
29.8806 81.5411 10.6630 0.7047
19.3045 82.2141 10.3692 0.7115
1.2104 10.9583 1.3537 0.9565
-0.9901 93.2739 11.4532 0.6867
-11.5988 87.8728 10.8830 0.6996
-21.5565 83.7724 10.6211 0.7057
-32.8973 84.1969 11.0992 0.6947
-16.4404 30.5933 4.2644 0.8694
-16.8995 23.9884 3.6029 0.8885
-16.9091 18.7299 3.0983 0.9033
-16.9202 14.7156 2.7533 0.9136
-16.9964 11.5085 2.5203 0.9206
-22.4308 11.5236 3.0963 0.9034
-31.2517 11.5481 4.0908 0.8744
-94.3690 -12.1965 11.6834 0.6815
-49.2345 -19.0835 6.4835 0.8083
-36.6992 -19.5936 5.1081 0.8456
-37.0591 -25.9576 5.5555 0.8333
-29.3453 -26.3484 4.8424 0.8530
-20.8352 -23.8259 3.8862 0.8802
-20.4089 -29.9657 4.4516 0.8641
-20.3457 -39.3404 5.4381 0.8365
-19.9358 -53.5042 7.0107 0.7944
-22.8963 -95.1908 12.0213 0.6740
0.1950 -37.4748 4.6014 0.8598
4.8905 -38.6620 4.7849 0.8547
19.9866 -79.4503 10.0592 0.7188
18.6032 -48.3836 6.3648 0.8115
18.6400 -35.1417 4.8843 0.8519
18.6632 -26.7992 4.0098 0.8767
19.3610 -21.6808 3.5690 0.8895
19.7438 -17.3600 3.2281 0.8995
20.5264 -14.0615 3.0550 0.9046
25.4245 -13.2361 3.5194 0.8909
54.2579 -20.3838 7.1166 0.7917
62.1877 -15.1358 7.8586 0.7726
44.3814 11.0370 5.6153 0.8317
27.7119 10.5691 3.6417 0.8873
20.0967 10.5902 2.7892 0.9125
19.4602 13.4743 2.9063 0.9090
19.4708 17.2930 3.1975 0.9004
19.4839 22.0388 3.6119 0.8882
21.5321 31.2500 4.6597 0.8582
30.9157 81.6193 10.7164 0.7035
20.2456 82.2114 10.3959 0.7109
9.9858 82.2400 10.1720 0.7162
0.0190 90.9119 11.1626 0.6932
-10.6952 88.3911 10.9322 0.6985
-20.7116 84.2571 10.6535 0.7049
-32.8897 86.9416 11.4134 0.6876
-16.2821 31.1018 4.3105 0.8681
-16.8979 24.5464 3.6590 0.8868
-16.9079 19.1413 3.1359 0.9022
-17.0945 15.1954 2.8083 0.9119
-16.9285 11.7319 2.5289 0.9203
-21.8425 11.5220 3.0322 0.9053
-30.6522 11.7053 4.0287 0.8761
-46.5031 11.5855 5.8844 0.8244
-52.1112 -19.5525 6.8340 0.7991
-37.2254 -19.3597 5.1519 0.8444
-37.4309 -25.6186 5.5693 0.8329
-29.8901 -26.2589 4.8851 0.8519
-26.8127 -29.9999 4.9403 0.8503
-20.6321 -29.5997 4.4302 0.8647
-19.9309 -37.5371 5.2184 0.8426
-20.2825 -52.6847 6.9317 0.7965
-23.9882 -95.1878 12.0530 0.6733
-0.2096 -37.2735 4.5767 0.8605
4.4297 -38.3484 4.7399 0.8559
18.3976 -49.4397 6.4771 0.8085
18.6375 -36.0746 4.9856 0.8490
18.6435 -27.3984 4.0691 0.8750
18.9581 -21.6978 3.5378 0.8904
19.7706 -17.7666 3.2637 0.8984
20.7172 -14.5241 3.1066 0.9031
24.1211 -12.8913 3.3581 0.8956
54.3783 -21.1036 7.1620 0.7905
62.9671 -16.0497 7.9786 0.7696
44.4983 10.5560 5.6153 0.8317
28.5384 10.5319 3.7351 0.8846
20.6323 10.5887 2.8475 0.9108
19.4594 13.1644 2.8847 0.9097
19.4698 16.9187 3.1671 0.9013
19.4826 21.5624 3.5682 0.8895
19.4592 27.5975 4.1462 0.8728
31.9289 81.6165 10.7608 0.7024
21.1912 82.2088 10.4239 0.7103
10.8903 82.2375 10.1856 0.7158
0.9889 89.5963 11.0018 0.6969
-9.4792 86.1537 10.6421 0.7052
-19.5651 83.4820 10.5281 0.7078
-31.7237 86.6828 11.3335 0.6894
-16.8741 33.0996 4.5618 0.8609
-17.0712 25.3820 3.7558 0.8840
-16.9068 19.5627 3.1747 0.9010
-17.0936 15.5290 2.8356 0.9111
-16.9278 12.0046 2.5481 0.9198
-21.2782 11.5204 2.9710 0.9071
-29.2716 11.5426 3.8634 0.8809
-44.4246 11.5797 5.6369 0.8311
-53.5881 -19.4473 6.9997 0.7947
-37.8870 -19.1856 5.2144 0.8427
-29.9764 -20.0436 4.4276 0.8647
-30.4678 -26.1877 4.9329 0.8505
-26.9380 -29.4914 4.9043 0.8513
-20.9026 -29.3064 4.4199 0.8650
-19.9955 -36.6942 5.1310 0.8450
-20.3796 -51.2748 6.7748 0.8006
-25.0861 -95.1847 12.0863 0.6725
-0.6173 -37.5281 4.6085 0.8596
3.8153 -36.4916 4.5050 0.8625
18.3648 -51.0352 6.6597 0.8037
18.6348 -37.0476 5.0919 0.8461
18.7370 -28.1873 4.1558 0.8725
18.6272 -21.7906 3.5199 0.8909
19.8861 -18.2633 3.3152 0.8969
20.0457 -14.3794 3.0291 0.9054
28.0841 -15.4023 3.9328 0.8789
34.4727 -13.8096 4.5597 0.8610
65.6688 -17.4973 8.3444 0.7604
63.3076 14.2958 7.9689 0.7699
29.5111 10.5293 3.8472 0.8814
21.1910 10.5872 2.9086 0.9089
19.4233 12.8357 2.8586 0.9104
19.4688 16.5513 3.1376 0.9021
19.4462 21.0594 3.5196 0.8909
19.4575 26.9705 4.0834 0.8746
32.9506 81.6136 10.8068 0.7014
22.1316 82.1671 10.4484 0.7097
11.7969 82.2349 10.2005 0.7155
1.9280 88.1870 10.8306 0.7008
-9.0135 90.9678 11.2241 0.6918
-18.6868 83.8067 10.5429 0.7075
-28.7349 81.2305 10.5795 0.7066
-16.8716 33.9995 4.6603 0.8582
-16.8947 25.7165 3.7780 0.8834
-16.9604 20.0597 3.2254 0.8995
-16.9271 15.7156 2.8360 0.9111
-16.9270 12.2816 2.5678 0.9192
-21.0540 11.6954 2.9572 0.9075
-28.4978 11.5954 3.7777 0.8834
-42.5137 11.5744 5.4100 0.8373
-54.2372 -19.0211 7.0571 0.7932
-38.7416 -19.0943 5.3032 0.8402
-30.3714 -19.8353 4.4540 0.8640
-31.1144 -26.1630 4.9915 0.8489
-27.0354 -28.9619 4.8647 0.8524
-26.5375 -36.3675 5.5278 0.8341
-20.3370 -36.3784 5.1173 0.8454
-19.8950 -48.5189 6.4387 0.8095
-26.1909 -95.1842 12.1215 0.6718
-1.0710 -39.2632 4.8227 0.8536
3.4222 -36.5529 4.5078 0.8625
20.0757 -57.7440 7.5063 0.7816
18.5813 -37.9594 5.1893 0.8434
18.6088 -28.6624 4.1960 0.8713
18.6756 -22.3324 3.5745 0.8893
19.7202 -18.5085 3.3207 0.8967
22.8308 -16.7546 3.4771 0.8921
23.9882 -13.4959 3.3795 0.8950
33.9301 -14.0204 4.5078 0.8625
66.2714 -18.4283 8.4458 0.7579
65.2379 13.9915 8.1924 0.7642
35.4154 12.2054 4.5995 0.8599
21.7027 10.5509 2.9630 0.9073
19.4577 12.5580 2.8435 0.9109
19.4678 16.1907 3.1090 0.9030
19.4449 20.6059 3.4787 0.8921
19.5951 26.5505 4.0517 0.8755
23.0583 82.0596 10.4659 0.7093
12.6743 82.0250 10.1909 0.7157
1.4243 43.5645 5.3519 0.8389
-8.0682 91.5101 11.2796 0.6906
-17.6246 83.2767 10.4516 0.7096
-26.8739 78.6674 10.2072 0.7153
-16.8690 34.9389 4.7638 0.8553
-16.8929 26.3305 3.8412 0.8815
-16.9591 20.5043 3.2672 0.8983
-16.9165 16.0502 2.8632 0.9103
-17.1014 12.6930 2.6150 0.9178
-20.2149 11.5175 2.8567 0.9105
-27.4992 11.5377 3.6616 0.8868
-41.1310 11.6778 5.2499 0.8417
-55.2916 -18.7214 7.1676 0.7904
-40.8425 -19.5833 5.5615 0.8332
-30.8319 -19.6633 4.4900 0.8630
-24.4888 -20.1434 3.8934 0.8800
-27.0668 -28.3737 4.8148 0.8538
-20.5394 -27.5171 4.2161 0.8708
-20.3137 -35.4304 5.0146 0.8482
-20.2218 -47.8339 6.3765 0.8112
-27.3020 -95.1811 12.1580 0.6710
-1.4776 -38.7661 4.7633 0.8553
3.0426 -36.7837 4.5319 0.8618
20.2699 -60.4023 7.8229 0.7736
18.4286 -38.7025 5.2633 0.8413
18.4552 -29.1110 4.2321 0.8703
18.8879 -23.0895 3.6628 0.8867
19.7963 -18.9871 3.3680 0.8953
19.8045 -14.8662 3.0406 0.9050
22.7816 -13.1437 3.2294 0.8994
33.1106 -14.1033 4.4189 0.8650
64.2653 -18.6224 8.2154 0.7636
76.9316 -12.5278 9.5704 0.7304
67.7768 13.7701 8.4920 0.7567
35.4142 11.7778 4.5825 0.8604
22.3835 10.5839 3.0401 0.9050
19.4569 12.2612 2.8238 0.9115
19.4668 15.8367 3.0813 0.9038
19.4437 20.1629 3.4393 0.8933
20.0416 26.5492 4.0844 0.8745
23.9891 81.9555 10.4851 0.7088
11.3840 68.7348 8.5545 0.7552
3.7046 85.0901 10.4576 0.7095
-7.1129 92.0581 11.3370 0.6893
-16.9863 84.7822 10.6168 0.7058
-26.0769 79.1247 10.2293 0.7148
-16.7999 35.7796 4.8534 0.8527
-16.6043 26.5075 3.8405 0.8816
-16.9030 20.8928 3.2997 0.8974
-16.9156 16.4008 2.8929 0.9094
-17.1006 12.9818 2.6362 0.9171
-19.7133 11.5161 2.8032 0.9121
-26.6806 11.5354 3.5690 0.8895
-21.6558 6.4025 2.7728 0.9130
-59.5093 -19.4339 7.6866 0.7770
-41.9973 -19.5806 5.6895 0.8297
-31.4931 -19.6088 4.5552 0.8611
-24.6796 -19.8564 3.8893 0.8802
-19.9503 -20.4654 3.5092 0.8912
-19.9661 -26.1537 4.0401 0.8758
-20.4093 -34.7208 4.9451 0.8502
-20.3670 -46.7598 6.2624 0.8142
-20.3253 -68.0704 8.7226 0.7510
-1.9897 -40.6400 4.9959 0.8488
1.5136 -21.0731 2.5941 0.9184
20.0873 -62.0788 8.0114 0.7688
18.5939 -40.1644 5.4344 0.8366
18.6539 -30.1413 4.3523 0.8669
18.8094 -23.5082 3.6966 0.8857
19.7775 -19.3843 3.4003 0.8944
23.9533 -18.3891 3.7078 0.8854
22.2630 -13.1676 3.1759 0.9010
31.6841 -13.9027 4.2484 0.8698
67.9846 -20.5003 8.7187 0.7511
77.5565 -13.4928 9.6658 0.7281
70.9501 13.6169 8.8706 0.7474
35.4130 11.3531 4.5662 0.8608
23.0178 10.5804 3.1105 0.9029
19.4560 11.9683 2.8047 0.9121
19.4630 15.4864 3.0539 0.9046
14.3207 14.5322 2.5051 0.9211
20.4956 26.5480 4.1181 0.8736
24.8750 81.6909 10.4851 0.7088
14.5351 82.2273 10.2528 0.7143
4.5096 82.9104 10.1952 0.7156
-6.1478 92.6117 11.3963 0.6879
-18.1616 96.0351 12.0006 0.6744
-25.4012 79.9772 10.3034 0.7131
-16.7217 36.6395 4.9451 0.8502
-16.3797 26.7896 3.8555 0.8811
-16.9018 21.3603 3.3445 0.8960
-16.9146 16.7590 2.9236 0.9085
-17.0232 13.2161 2.6462 0.9168
-19.2301 11.5147 2.7521 0.9136
-26.1361 11.6373 3.5128 0.8911
-37.5078 11.5320 4.8181 0.8537
-42.8458 -19.4145 5.7757 0.8273
-31.7019 -19.2657 4.5549 0.8611
-25.0423 -19.7054 3.9126 0.8795
-19.9491 -20.0257 3.4707 0.8923
-19.9645 -25.5727 3.9835 0.8774
-20.4758 -33.9861 4.8718 0.8522
-20.3633 -45.4020 6.1097 0.8183
-20.3181 -65.4525 8.4148 0.7587
-2.3638 -39.5159 4.8606 0.8525
1.1761 -19.2963 2.3737 0.9250
20.2571 -64.9979 8.3593 0.7601
14.3912 -31.9895 4.3070 0.8682
18.7295 -31.0080 4.4479 0.8642
18.6714 -23.8606 3.7201 0.8851
21.6713 -21.7053 3.7660 0.8837
20.3154 -15.9486 3.1712 0.9011
22.1575 -13.4310 3.1814 0.9008
30.1612 -13.6256 4.0637 0.8751
64.6104 -20.2482 8.3136 0.7612
66.6036 -12.3314 8.3169 0.7611
26.8747 12.3028 2.5859 0.8881
21.3594 13.0935 2.1919 0.9043
21.0923 16.7295 2.3553 0.8975
14.3422 14.5090 1.7849 0.9213
18.6084 24.0264 2.6588 0.8851
19.5082 32.6648 3.3287 0.8583
25.1953 82.2852 7.5289 0.7078
14.6820 82.3144 7.3152 0.7148
4.6357 82.8640 7.2610 0.7166
-6.0090 92.6914 8.1265 0.6887
-25.2747 80.0078 7.3407 0.7140
-16.8630 37.1010 3.5655 0.8491
-16.3794 26.8825 2.7541 0.8813
-16.9016 21.4281 2.3877 0.8962
-16.9144 16.8108 2.0864 0.9087
-16.9245 13.1814 1.8768 0.9175
-18.9082 11.3620 1.9299 0.9152
-26.1004 11.6701 2.5013 0.8915
-37.3926 11.5602 3.4242 0.8546
-60.7165 -19.0000 5.5660 0.7746
-42.9349 -19.3746 4.1211 0.8277
-31.8125 -19.2654 3.2539 0.8613
-24.8256 -19.4727 2.7604 0.8810
-19.9489 -19.9635 2.4691 0.8929
-19.9643 -25.4909 2.8327 0.8781
-20.7050 -34.2464 3.5012 0.8516
-20.8815 -46.3648 4.4488 0.8153
-20.2962 -65.0259 5.9597 0.7607
1.1480 -19.3293 1.6941 0.9252
20.2561 -65.3507 5.9858 0.7598
14.3496 -32.0303 3.0703 0.8686
18.4215 -30.6058 3.1253 0.8664
18.3068 -23.4698 2.6041 0.8874
21.1995 -21.2989 2.6291 0.8863
27.2956 -21.4972 3.0397 0.8698
32.0942 -19.5226 3.2866 0.8600
53.7884 -24.4002 5.1674 0.7889
64.2567 -20.2471 5.8942 0.7630
65.7132 -12.2722 5.8486 0.7646
57.6246 10.3217 5.1217 0.7905
34.3840 10.5558 3.1468 0.8655
27.0063 12.0112 2.5859 0.8881
21.3585 12.7770 2.1775 0.9049
21.0464 16.3251 2.3303 0.8986
19.5805 19.3839 2.4105 0.8953
18.5640 23.4405 2.6160 0.8869
19.5060 31.8723 3.2692 0.8607
26.2334 82.4754 7.5719 0.7064
15.6027 82.3119 7.3296 0.7143
5.4961 82.2648 7.2133 0.7182
-5.0324 93.2516 8.1703 0.6873
-17.1906 97.4916 8.6610 0.6720
-24.8888 81.8609 7.4856 0.7092
-16.8708 38.2108 3.6544 0.8456
-16.8872 28.4034 2.8910 0.8757
-16.9052 21.9165 2.4216 0.8948
-16.6803 16.9409 2.0800 0.9090
-16.9237 13.4776 1.8928 0.9168
-18.6171 11.4631 1.9128 0.9160
-25.0577 11.5309 2.4132 0.8952
-36.1312 11.6002 3.3200 0.8587
-43.8792 -19.2318 4.1915 0.8250
-32.6002 -19.2632 3.3129 0.8590
-25.4004 -19.4831 2.8007 0.8794
-19.9477 -19.5348 2.4427 0.8939
-19.9627 -24.9282 2.7941 0.8796
-26.5666 -42.8860 4.4136 0.8166
-20.0135 -43.1831 4.1641 0.8260
-20.4122 -62.9921 5.7932 0.7665
1.8080 -37.2496 3.2628 0.8609
20.0195 -67.1493 6.1303 0.7548
18.7895 -43.1875 4.1205 0.8277
18.5002 -31.5032 3.1963 0.8636
18.2590 -23.9383 2.6340 0.8861
20.7799 -21.3344 2.6056 0.8873
22.0735 -17.7748 2.4795 0.8924
29.6008 -18.4478 3.0515 0.8693
53.0585 -24.7650 5.1228 0.7905
63.9796 -20.9237 5.8892 0.7632
63.1634 -12.5050 5.6333 0.7722
69.8723 11.7364 6.1987 0.7524
35.6289 10.5173 3.2501 0.8614
27.1347 11.7182 2.5859 0.8881
21.3671 12.4701 2.1645 0.9054
21.0058 15.9325 2.3066 0.8995
20.0080 19.3828 2.4372 0.8942
18.5473 22.9056 2.5786 0.8884
19.5039 31.1075 3.2122 0.8629
27.1552 82.2798 7.5805 0.7062
16.5425 82.3865 7.3517 0.7136
6.4142 82.5606 7.2449 0.7171
-3.9812 92.3402 8.0863 0.6900
-16.0628 97.2392 8.6226 0.6732
-26.4230 90.4117 8.2409 0.6851
-16.8568 39.3258 3.7433 0.8421
-17.0600 29.4142 2.9749 0.8724
-17.0788 22.6443 2.4814 0.8924
-16.9124 17.5527 2.1325 0.9068
-16.9228 13.7789 1.9093 0.9161
-18.2510 11.5120 1.8879 0.9170
-24.3558 11.5290 2.3575 0.8974
-34.7039 11.5577 3.2002 0.8634
-47.0023 -19.9969 4.4689 0.8146
-34.8688 -20.0977 3.5211 0.8508
-25.7059 -19.2791 2.8112 0.8790
-20.1339 -19.2946 2.4397 0.8941
-20.1625 -24.6266 2.7846 0.8800
-19.9810 -31.4885 3.2627 0.8609
-20.1535 -42.2793 4.0977 0.8286
-19.9014 -59.2222 5.4660 0.7781
1.3864 -36.7808 3.2202 0.8626
20.2413 -70.6784 6.4321 0.7444
18.4415 -43.6739 4.1476 0.8267
18.4980 -32.2950 3.2561 0.8612
18.2096 -24.4173 2.6649 0.8849
20.3674 -21.3688 2.5827 0.8882
22.6015 -18.6069 2.5613 0.8891
29.6591 -18.9329 3.0785 0.8682
53.1695 -25.5213 5.1599 0.7891
64.0898 -21.7305 5.9207 0.7621
62.7919 -13.1394 5.6126 0.7729
74.7681 11.7281 6.6213 0.7379
37.2117 10.5480 3.3839 0.8562
27.2599 11.4238 2.5859 0.8881
21.9059 12.4686 2.2052 0.9037
20.9954 15.5694 2.2868 0.9004
20.4450 19.3816 2.4647 0.8930
18.5460 22.4036 2.5445 0.8898
19.5018 30.3688 3.1576 0.8651
23.3264 48.2615 4.6897 0.8064
28.0664 82.0457 7.5864 0.7060
17.3930 82.0119 7.3347 0.7142
7.2941 82.3350 7.2316 0.7176
-2.9982 92.8976 8.1317 0.6885
-14.5576 94.4763 8.3632 0.6813
-25.3568 90.3856 8.2130 0.6860
-16.9312 40.7107 3.8575 0.8377
-16.8832 29.8492 3.0003 0.8714
-17.0774 23.1596 2.5175 0.8909
-16.9113 17.9361 2.1567 0.9058
-16.8036 13.9871 1.9128 0.9160
-17.8187 11.5108 1.8559 0.9183
-23.6854 11.5271 2.3046 0.8996
-33.6314 11.6064 3.1127 0.8669
-53.3198 -14.8027 4.8413 0.8008
-47.6780 -19.6777 4.5126 0.8129
-37.2301 -20.9252 3.7364 0.8424
-26.2919 -19.2775 2.8523 0.8773
-20.5738 -19.2934 2.4676 0.8929
-20.1494 -24.0741 2.7466 0.8816
-20.0549 -30.8615 3.2201 0.8626
-20.4313 -41.6940 4.0622 0.8299
-20.3992 -58.5950 5.4282 0.7795
-20.4283 -93.8199 8.4005 0.6801
0.9836 -36.6246 3.2054 0.8632
14.2881 -52.0120 4.7190 0.8053
18.8233 -45.9604 4.3452 0.8192
18.6449 -33.3843 3.3454 0.8577
18.1587 -24.9071 2.6967 0.8836
19.9618 -21.4023 2.5605 0.8891
21.8976 -18.4287 2.5040 0.8914
30.2768 -19.7917 3.1646 0.8648
34.5844 -17.0636 3.3740 0.8565
63.9751 -22.4666 5.9322 0.7617
62.7088 -13.8321 5.6182 0.7727
80.1062 11.6784 7.0825 0.7225
38.7919 10.5437 3.5170 0.8509
27.3820 11.1280 2.5859 0.8881
22.3726 12.4156 2.2385 0.9024
20.9517 15.1883 2.2640 0.9013
20.8920 19.3803 2.4932 0.8919
18.5446 21.9147 2.5116 0.8911
19.4998 29.6547 3.1051 0.8672
23.3222 46.9489 4.5864 0.8102
29.1839 82.3895 7.6470 0.7040
18.3882 82.3041 7.3782 0.7128
8.1929 82.3325 7.2387 0.7173
-1.9929 92.9405 8.1331 0.6885
-12.8238 89.6612 7.9242 0.6951
-23.5373 87.5324 7.9301 0.6949
-32.9028 81.5939 7.6971 0.7024
-16.6845 30.2576 3.0230 0.8705
-16.9010 23.4475 2.5288 0.8904
-11.9083 12.9070 1.5364 0.9319
-16.7696 14.2688 1.9264 0.9154
-17.4008 11.5096 1.8253 0.9196
-23.0444 11.5253 2.2542 0.9017
-32.3319 11.5511 3.0038 0.8712
-48.6442 -19.4629 4.5838 0.8103
-36.4072 -19.9471 3.6320 0.8465
-26.8999 -19.2790 2.8955 0.8756
-21.0240 -19.2921 2.4964 0.8917
-20.3293 -23.7617 2.7359 0.8820
-20.3717 -30.6185 3.2175 0.8627
-20.7661 -41.2416 4.0398 0.8308
-20.3921 -56.5942 5.2630 0.7854
-20.3802 -88.9553 7.9842 0.6932
0.6046 -37.7201 3.3005 0.8594
20.2062 -76.7998 6.9478 0.7270
18.6074 -46.8734 4.4122 0.8167
18.4420 -33.8772 3.3746 0.8565
18.1550 -25.4768 2.7370 0.8820
19.5626 -21.4349 2.5389 0.8900
25.2430 -21.7152 2.9132 0.8749
32.6335 -21.8402 3.4355 0.8541
36.2942 -18.3982 3.5600 0.8493
63.9731 -23.2467 5.9550 0.7609
64.0047 -14.8462 5.7484 0.7681
42.2602 5.6945 3.7308 0.8426
40.5017 10.5389 3.6614 0.8453
27.5008 10.8310 2.5859 0.8881
22.2712 12.0459 2.2152 0.9033
20.9095 14.8151 2.2420 0.9022
21.3495 19.3791 2.5226 0.8907
18.5433 21.4381 2.4799 0.8924
19.4979 28.9639 3.0547 0.8692
30.1482 82.2714 7.6659 0.7034
19.3754 82.5158 7.4155 0.7115
1.2104 10.9582 0.9645 0.9567
-0.9901 93.2739 8.1609 0.6876
-11.5782 87.7165 7.7408 0.7010
-21.5566 83.7724 7.5679 0.7066
-32.9811 84.4114 7.9287 0.6950
-16.3453 30.4163 3.0210 0.8705
-16.8995 23.9884 2.5672 0.8889
-16.9091 18.7299 2.2076 0.9036
-16.7687 14.5839 1.9443 0.9146
-16.9964 11.5085 1.7958 0.9209
-22.4308 11.5236 2.2063 0.9037
-31.2517 11.5481 2.9149 0.8748
-94.2029 -12.1751 8.3102 0.6829
-49.5763 -19.2160 4.6518 0.8078
-36.8477 -19.6729 3.6544 0.8456
-27.7959 -19.4693 2.9690 0.8726
-21.7927 -19.5671 2.5624 0.8891
-20.8018 -23.7877 2.7647 0.8808
