ply
format ascii 1.0
element vertex 1594
property float32 x
property float32 y
property float32 z
property float32 I
end_header
4.6751 -7.7986 -1.4401 0.9638
6.5929 -8.4837 -1.7017 0.9574
7.5656 -7.6290 -1.7017 0.9574
8.4284 -6.6634 -1.7017 0.9574
9.1688 -5.6011 -1.7017 0.9574
9.7761 -4.4574 -1.7017 0.9574
10.2413 -3.2490 -1.7017 0.9574
10.5578 -1.9933 -1.7017 0.9574
10.7209 -0.7087 -1.7017 0.9574
10.7283 0.5861 -1.7017 0.9574
10.5799 1.8725 -1.7017 0.9574
10.2778 3.1317 -1.7017 0.9574
9.8264 4.3454 -1.7017 0.9574
9.2323 5.4959 -1.7017 0.9574
8.5041 6.5667 -1.7017 0.9574
7.6523 7.5420 -1.7017 0.9574
6.6894 8.4078 -1.7017 0.9574
5.6294 9.1515 -1.7017 0.9574
4.4876 9.7623 -1.7017 0.9574
3.2806 10.2312 -1.7017 0.9574
2.0259 10.5516 -1.7017 0.9574
0.7418 10.7187 -1.7017 0.9574
-0.5530 10.7301 -1.7017 0.9574
-1.8399 10.5856 -1.7017 0.9574
-3.0999 10.2874 -1.7017 0.9574
-4.3150 9.8397 -1.7017 0.9574
-5.4674 9.2492 -1.7017 0.9574
-6.5404 8.5243 -1.7017 0.9574
-7.5184 7.6756 -1.7017 0.9574
-8.3872 6.7153 -1.7017 0.9574
-9.1341 5.6576 -1.7017 0.9574
-9.7484 4.5177 -1.7017 0.9574
-10.2211 3.3121 -1.7017 0.9574
-10.5453 2.0585 -1.7017 0.9574
-10.7163 0.7749 -1.7017 0.9574
-10.7317 -0.5199 -1.7017 0.9574
-10.5912 -1.8072 -1.7017 0.9574
-10.2969 -3.0682 -1.7017 0.9574
-9.8530 -4.2846 -1.7017 0.9574
-9.2660 -5.4389 -1.7017 0.9574
-8.5444 -6.5141 -1.7017 0.9574
-7.6987 -7.4946 -1.7017 0.9574
-6.7412 -8.3664 -1.7017 0.9574
-5.6857 -9.1166 -1.7017 0.9574
-4.5477 -9.7344 -1.7017 0.9574
-3.3436 -10.2108 -1.7017 0.9574
-2.0910 -10.5389 -1.7017 0.9574
-0.8080 -10.7139 -1.7017 0.9574
0.4868 -10.7333 -1.7017 0.9574
1.3123 -7.8367 -1.2585 0.9683
2.3077 -7.8329 -1.2933 0.9675
3.3698 -7.8152 -1.3480 0.9661
4.5452 -7.7986 -1.4297 0.9641
6.4877 -8.5645 -1.7017 0.9574
7.4709 -7.7218 -1.7017 0.9574
8.3455 -6.7670 -1.7017 0.9574
9.0990 -5.7139 -1.7017 0.9574
9.7203 -4.5777 -1.7017 0.9574
10.2004 -3.3752 -1.7017 0.9574
10.5324 -2.1235 -1.7017 0.9574
10.7113 -0.8411 -1.7017 0.9574
10.7347 0.4537 -1.7017 0.9574
10.6022 1.7418 -1.7017 0.9574
10.3157 3.0045 -1.7017 0.9574
9.8793 4.2237 -1.7017 0.9574
9.2994 5.3816 -1.7017 0.9574
8.5845 6.4612 -1.7017 0.9574
7.7448 7.4470 -1.7017 0.9574
6.7927 8.3246 -1.7017 0.9574
5.7419 9.0813 -1.7017 0.9574
4.6077 9.7062 -1.7017 0.9574
3.4066 10.1900 -1.7017 0.9574
2.1560 10.5258 -1.7017 0.9574
0.8741 10.7087 -1.7017 0.9574
-0.4205 10.7361 -1.7017 0.9574
-1.7091 10.6075 -1.7017 0.9574
-2.9727 10.3249 -1.7017 0.9574
-4.1932 9.8923 -1.7017 0.9574
-5.3529 9.3159 -1.7017 0.9574
-6.4347 8.6044 -1.7017 0.9574
-7.4231 7.7678 -1.7017 0.9574
-8.3036 6.8184 -1.7017 0.9574
-9.0636 5.7699 -1.7017 0.9574
-9.6919 4.6376 -1.7017 0.9574
-10.1794 3.4380 -1.7017 0.9574
-10.5191 2.1884 -1.7017 0.9574
-10.7059 0.9071 -1.7017 0.9574
-10.7373 -0.3874 -1.7017 0.9574
-10.6127 -1.6764 -1.7017 0.9574
-10.3340 -2.9408 -1.7017 0.9574
-9.9052 -4.1627 -1.7017 0.9574
-9.3325 -5.3240 -1.7017 0.9574
-8.6242 -6.4081 -1.7017 0.9574
-7.7906 -7.3991 -1.7017 0.9574
-6.8440 -8.2825 -1.7017 0.9574
-6.1796 -6.2013 -1.7017 0.9650
-5.3887 -6.8997 -1.7017 0.9650
-4.5195 -7.4979 -1.7017 0.9650
-3.5847 -7.9871 -1.7017 0.9650
-2.5978 -8.3603 -1.7017 0.9650
-1.5732 -8.6121 -1.7017 0.9650
-0.5257 -8.7388 -1.7017 0.9650
0.5294 -8.7386 -1.7017 0.9650
1.4280 -7.7986 -1.5411 0.9682
2.6013 -8.3592 -1.7017 0.9650
3.5881 -7.9856 -1.7017 0.9650
4.5227 -7.4959 -1.7017 0.9650
5.3916 -6.8974 -1.7017 0.9650
6.1822 -6.1987 -1.7017 0.9650
6.8830 -5.4100 -1.7017 0.9650
7.4839 -4.5426 -1.7017 0.9650
7.9760 -3.6093 -1.7017 0.9650
8.3523 -2.6236 -1.7017 0.9650
8.6072 -1.5998 -1.7017 0.9650
8.7372 -0.5527 -1.7017 0.9650
8.7402 0.5024 -1.7017 0.9650
8.6163 1.5502 -1.7017 0.9650
8.3672 2.5756 -1.7017 0.9650
7.9966 3.5634 -1.7017 0.9650
7.5099 4.4995 -1.7017 0.9650
6.9140 5.3703 -1.7017 0.9650
6.2178 6.1631 -1.7017 0.9650
5.4312 6.8663 -1.7017 0.9650
4.5657 7.4698 -1.7017 0.9650
3.6339 7.9648 -1.7017 0.9650
2.6494 8.3442 -1.7017 0.9650
1.6263 8.6023 -1.7017 0.9650
0.5796 8.7354 -1.7017 0.9650
-0.4755 8.7417 -1.7017 0.9650
-1.5237 8.6210 -1.7017 0.9650
-2.5497 8.3751 -1.7017 0.9650
-3.5387 8.0076 -1.7017 0.9650
-4.4764 7.5237 -1.7017 0.9650
-5.3490 6.9306 -1.7017 0.9650
-6.1439 6.2367 -1.7017 0.9650
-6.8495 5.4523 -1.7017 0.9650
-7.4557 4.5887 -1.7017 0.9650
-7.9536 3.6585 -1.7017 0.9650
-8.3359 2.6751 -1.7017 0.9650
-8.5972 1.6528 -1.7017 0.9650
-8.7336 0.6066 -1.7017 0.9650
-8.7432 -0.4485 -1.7017 0.9650
-8.6257 -1.4970 -1.7017 0.9650
-8.3830 -2.5239 -1.7017 0.9650
-8.0185 -3.5140 -1.7017 0.9650
-7.5375 -4.4531 -1.7017 0.9650
-6.9470 -5.3275 -1.7017 0.9650
-6.2557 -6.1246 -1.7017 0.9650
-5.4734 -6.8327 -1.7017 0.9650
-4.6117 -7.4415 -1.7017 0.9650
-3.6830 -7.9423 -1.7017 0.9650
-2.7008 -8.3276 -1.7017 0.9650
-1.6794 -8.5921 -1.7017 0.9650
-0.6335 -8.7317 -1.7017 0.9650
0.4215 -8.7445 -1.7017 0.9650
1.4704 -8.6303 -1.7017 0.9650
2.4980 -8.3907 -1.7017 0.9650
3.4892 -8.0293 -1.7017 0.9650
4.4298 -7.5512 -1.7017 0.9650
5.3061 -6.9634 -1.7017 0.9650
6.1052 -6.2745 -1.7017 0.9650
6.8157 -5.4945 -1.7017 0.9650
7.4272 -4.6347 -1.7017 0.9650
7.9308 -3.7075 -1.7017 0.9650
8.3193 -2.7265 -1.7017 0.9650
8.5868 -1.7059 -1.7017 0.9650
8.7297 -0.6605 -1.7017 0.9650
8.7458 0.3945 -1.7017 0.9650
8.6348 1.4438 -1.7017 0.9650
8.3984 2.4721 -1.7017 0.9650
8.0400 3.4644 -1.7017 0.9650
7.5648 4.4065 -1.7017 0.9650
6.9798 5.2846 -1.7017 0.9650
6.2933 6.0858 -1.7017 0.9650
5.5155 6.7988 -1.7017 0.9650
4.6576 7.4129 -1.7017 0.9650
3.7319 7.9194 -1.7017 0.9650
2.7521 8.3108 -1.7017 0.9650
1.7324 8.5815 -1.7017 0.9650
0.6874 8.7276 -1.7017 0.9650
-0.3675 8.7469 -1.7017 0.9650
-1.4171 8.6392 -1.7017 0.9650
-2.4462 8.4060 -1.7017 0.9650
-3.4396 8.0506 -1.7017 0.9650
-4.3831 7.5784 -1.7017 0.9650
-5.2630 6.9961 -1.7017 0.9650
-6.0664 6.3121 -1.7017 0.9650
-6.7817 5.5365 -1.7017 0.9650
-7.3985 4.6804 -1.7017 0.9650
-7.9078 3.7564 -1.7017 0.9650
-8.3023 2.7778 -1.7017 0.9650
-8.5761 1.7588 -1.7017 0.9650
-8.7255 0.7143 -1.7017 0.9650
-8.7480 -0.3405 -1.7017 0.9650
-8.6435 -1.3905 -1.7017 0.9650
-8.4135 -2.4202 -1.7017 0.9650
-8.0612 -3.4148 -1.7017 0.9650
-7.5919 -4.3597 -1.7017 0.9650
-7.0123 -5.2414 -1.7017 0.9650
-6.3308 -6.0469 -1.7017 0.9650
-5.5574 -6.7646 -1.7017 0.9650
-4.7032 -7.3840 -1.7017 0.9650
-3.7807 -7.8962 -1.7017 0.9650
-2.8034 -8.2937 -1.7017 0.9650
-1.7853 -8.5707 -1.7017 0.9650
-0.7413 -8.7232 -1.7017 0.9650
0.3135 -8.7490 -1.7017 0.9650
1.3638 -8.6478 -1.7017 0.9650
2.3942 -8.4209 -1.7017 0.9650
3.3899 -8.0717 -1.7017 0.9650
4.3363 -7.6053 -1.7017 0.9650
5.2197 -7.0284 -1.7017 0.9650
6.0273 -6.3494 -1.7017 0.9650
6.7474 -5.5782 -1.7017 0.9650
7.3695 -4.7260 -1.7017 0.9650
7.8845 -3.8051 -1.7017 0.9650
8.2850 -2.8290 -1.7017 0.9650
8.5651 -1.8117 -1.7017 0.9650
8.7209 -0.7682 -1.7017 0.9650
8.7500 0.2865 -1.7017 0.9650
8.6519 1.3371 -1.7017 0.9650
8.4283 2.3682 -1.7017 0.9650
8.0821 3.3649 -1.7017 0.9650
7.6186 4.3128 -1.7017 0.9650
7.0445 5.1980 -1.7017 0.9650
6.3680 6.0077 -1.7017 0.9650
5.5990 6.7302 -1.7017 0.9650
4.7487 7.3548 -1.7017 0.9650
3.8294 7.8727 -1.7017 0.9650
2.8545 8.2762 -1.7017 0.9650
1.8381 8.5595 -1.7017 0.9650
0.7951 8.7185 -1.7017 0.9650
-0.2596 8.7508 -1.7017 0.9650
-1.3104 8.6560 -1.7017 0.9650
-2.3422 8.4355 -1.7017 0.9650
-3.3400 8.0925 -1.7017 0.9650
-4.2893 7.6319 -1.7017 0.9650
-5.1762 7.0605 -1.7017 0.9650
-5.9880 6.3865 -1.7017 0.9650
-6.7129 5.6197 -1.7017 0.9650
-7.3402 4.7714 -1.7017 0.9650
-7.8608 3.8537 -1.7017 0.9650
-8.2674 2.8800 -1.7017 0.9650
-8.5538 1.8646 -1.7017 0.9650
-8.7160 0.8220 -1.7017 0.9650
-8.7516 -0.2325 -1.7017 0.9650
-8.6600 -1.2837 -1.7017 0.9650
-8.4427 -2.3161 -1.7017 0.9650
-8.1028 -3.3150 -1.7017 0.9650
-7.6451 -4.2657 -1.7017 0.9650
-7.0764 -5.1544 -1.7017 0.9650
-6.4049 -5.9683 -1.7017 0.9650
-5.6404 -6.6955 -1.7017 0.9650
-4.7940 -7.3254 -1.7017 0.9650
-3.8779 -7.8489 -1.7017 0.9650
-2.9055 -8.2584 -1.7017 0.9650
-1.8909 -8.5480 -1.7017 0.9650
-0.8489 -8.7134 -1.7017 0.9650
0.2055 -8.7522 -1.7017 0.9650
1.2569 -8.6639 -1.7017 0.9650
2.2901 -8.4498 -1.7017 0.9650
3.2900 -8.1129 -1.7017 0.9650
4.2421 -7.6582 -1.7017 0.9650
5.1326 -7.0923 -1.7017 0.9650
5.9485 -6.4233 -1.7017 0.9650
6.6780 -5.6611 -1.7017 0.9650
7.3106 -4.8166 -1.7017 0.9650
7.8369 -3.9021 -1.7017 0.9650
8.2494 -2.9310 -1.7017 0.9650
8.5421 -1.9173 -1.7017 0.9650
8.7107 -0.8757 -1.7017 0.9650
8.7528 0.1785 -1.7017 0.9650
8.6678 1.2302 -1.7017 0.9650
8.4568 2.2640 -1.7017 0.9650
8.1231 3.2649 -1.7017 0.9650
7.6713 4.2184 -1.7017 0.9650
7.1081 5.1107 -1.7017 0.9650
6.4417 5.9286 -1.7017 0.9650
5.6816 6.6605 -1.7017 0.9650
4.8391 7.2957 -1.7017 0.9650
3.9263 7.8248 -1.7017 0.9650
2.9565 8.2403 -1.7017 0.9650
1.9437 8.5362 -1.7017 0.9650
0.9026 8.7080 -1.7017 0.9650
-0.1515 8.7533 -1.7017 0.9650
-1.2035 8.6715 -1.7017 0.9650
-2.2379 8.4638 -1.7017 0.9650
-3.2398 8.1331 -1.7017 0.9650
-4.1947 7.6843 -1.7017 0.9650
-5.0887 7.1238 -1.7017 0.9650
-5.9088 6.4599 -1.7017 0.9650
-6.6430 5.7022 -1.7017 0.9650
-7.2807 4.8616 -1.7017 0.9650
-7.8127 3.9504 -1.7017 0.9650
-8.2312 2.9819 -1.7017 0.9650
-8.5301 1.9700 -1.7017 0.9650
-8.7052 0.9295 -1.7017 0.9650
-8.7538 -0.1245 -1.7017 0.9650
-8.6752 -1.1767 -1.7017 0.9650
-8.4706 -2.2118 -1.7017 0.9650
-8.1431 -3.2147 -1.7017 0.9650
-7.6972 -4.1710 -1.7017 0.9650
-7.1395 -5.0667 -1.7017 0.9650
-6.4781 -5.8888 -1.7017 0.9650
-5.7227 -6.6253 -1.7017 0.9650
-4.8841 -7.2657 -1.7017 0.9650
-3.9745 -7.8005 -1.7017 0.9650
-3.0073 -8.2219 -1.7017 0.9650
-1.9963 -8.5240 -1.7017 0.9650
-0.9564 -8.7023 -1.7017 0.9650
0.0975 -8.7541 -1.7017 0.9650
1.1499 -8.6788 -1.7017 0.9650
2.1856 -8.4774 -1.7017 0.9650
3.1896 -8.1529 -1.7017 0.9650
4.1472 -7.7100 -1.7017 0.9650
5.0446 -7.1551 -1.7017 0.9650
5.8688 -6.4963 -1.7017 0.9650
6.6076 -5.7431 -1.7017 0.9650
7.2506 -4.9065 -1.7017 0.9650
7.7881 -3.9986 -1.7017 0.9650
8.2126 -3.0326 -1.7017 0.9650
8.5178 -2.0226 -1.7017 0.9650
8.6993 -0.9832 -1.7017 0.9650
8.7544 0.0705 -1.7017 0.9650
8.6823 1.1231 -1.7017 0.9650
8.4841 2.1594 -1.7017 0.9650
8.1627 3.1644 -1.7017 0.9650
7.7228 4.1234 -1.7017 0.9650
7.1706 5.0225 -1.7017 0.9650
6.5143 5.8487 -1.7017 0.9650
5.7634 6.5899 -1.7017 0.9650
4.9288 7.2354 -1.7017 0.9650
4.0226 7.7758 -1.7017 0.9650
3.0579 8.2032 -1.7017 0.9650
2.0489 8.5115 -1.7017 0.9650
1.0101 8.6962 -1.7017 0.9650
-0.0435 8.7545 -1.7017 0.9650
-1.0963 8.6857 -1.7017 0.9650
-2.1333 8.4908 -1.7017 0.9650
-3.1392 8.1725 -1.7017 0.9650
-4.0996 7.7355 -1.7017 0.9650
-5.0004 7.1861 -1.7017 0.9650
-5.8286 6.5324 -1.7017 0.9650
-6.5721 5.7837 -1.7017 0.9650
-7.2201 4.9511 -1.7017 0.9650
-7.7633 4.0466 -1.7017 0.9650
-8.1938 3.0832 -1.7017 0.9650
-8.5052 2.0751 -1.7017 0.9650
-8.6930 1.0369 -1.7017 0.9650
-8.7546 -0.0164 -1.7017 0.9650
-8.6891 -1.0695 -1.7017 0.9650
-8.4973 -2.1070 -1.7017 0.9650
-8.1821 -3.1140 -1.7017 0.9650
-7.7481 -4.0757 -1.7017 0.9650
-7.2015 -4.9782 -1.7017 0.9650
-6.5503 -5.8084 -1.7017 0.9650
-5.8040 -6.5542 -1.7017 0.9650
-4.9733 -7.2048 -1.7017 0.9650
-4.0705 -7.7508 -1.7017 0.9650
-3.1085 -8.1842 -1.7017 0.9650
-2.1014 -8.4987 -1.7017 0.9650
-1.0637 -8.6898 -1.7017 0.9650
-0.0106 -8.7546 -1.7017 0.9650
1.0427 -8.6923 -1.7017 0.9650
1.9083 -7.7986 -1.5606 0.9678
3.0887 -8.1917 -1.7017 0.9650
4.0517 -7.7606 -1.7017 0.9650
4.9559 -7.2168 -1.7017 0.9650
5.7881 -6.5682 -1.7017 0.9650
6.5363 -5.8242 -1.7017 0.9650
7.1894 -4.9956 -1.7017 0.9650
7.7382 -4.0944 -1.7017 0.9650
8.1746 -3.1337 -1.7017 0.9650
8.4922 -2.1276 -1.7017 0.9650
8.6865 -1.0905 -1.7017 0.9650
8.7546 -0.0376 -1.7017 0.9650
8.6955 1.0159 -1.7017 0.9650
8.5102 2.0546 -1.7017 0.9650
8.2012 3.0634 -1.7017 0.9650
7.7731 4.0278 -1.7017 0.9650
7.2321 4.9336 -1.7017 0.9650
6.5860 5.7678 -1.7017 0.9650
5.8443 6.5182 -1.7017 0.9650
5.0177 7.1740 -1.7017 0.9650
4.1183 7.7255 -1.7017 0.9650
3.1590 8.1649 -1.7017 0.9650
2.1538 8.4856 -1.7017 0.9650
1.1173 8.6831 -1.7017 0.9650
0.0646 8.7544 -1.7017 0.9650
-0.9890 8.6986 -1.7017 0.9650
-2.0283 8.5165 -1.7017 0.9650
-3.0381 8.2106 -1.7017 0.9650
-4.0038 7.7855 -1.7017 0.9650
-4.9113 7.2473 -1.7017 0.9650
-5.7475 6.6038 -1.7017 0.9650
-6.5002 5.8644 -1.7017 0.9650
-7.1585 5.0398 -1.7017 0.9650
-7.7128 4.1421 -1.7017 0.9650
-8.1551 3.1841 -1.7017 0.9650
-8.4789 2.1800 -1.7017 0.9650
-8.6796 1.1441 -1.7017 0.9650
-8.7542 0.0916 -1.7017 0.9650
-8.7016 -0.9622 -1.7017 0.9650
-8.5227 -2.0020 -1.7017 0.9650
-8.2199 -3.0127 -1.7017 0.9650
-7.7978 -3.9797 -1.7017 0.9650
-7.2624 -4.8889 -1.7017 0.9650
-6.6215 -5.7271 -1.7017 0.9650
-5.8845 -6.4821 -1.7017 0.9650
-5.0619 -7.1429 -1.7017 0.9650
-4.1658 -7.7000 -1.7017 0.9650
-3.2093 -8.1452 -1.7017 0.9650
-2.2061 -8.4721 -1.7017 0.9650
-1.1709 -8.6760 -1.7017 0.9650
-0.1186 -8.7538 -1.7017 0.9650
0.9353 -8.7045 -1.7017 0.9650
1.8065 -7.7986 -1.5560 0.9679
2.9874 -8.2292 -1.7017 0.9650
3.9556 -7.8100 -1.7017 0.9650
4.8665 -7.2774 -1.7017 0.9650
5.7066 -6.6392 -1.7017 0.9650
6.4639 -5.9044 -1.7017 0.9650
7.1272 -5.0839 -1.7017 0.9650
7.6871 -4.1896 -1.7017 0.9650
8.1353 -3.2344 -1.7017 0.9650
8.4653 -2.2322 -1.7017 0.9650
8.6723 -1.1977 -1.7017 0.9650
8.7534 -0.1457 -1.7017 0.9650
8.7074 0.9085 -1.7017 0.9650
8.5349 1.9494 -1.7017 0.9650
8.2384 2.9620 -1.7017 0.9650
7.8222 3.9315 -1.7017 0.9650
7.2924 4.8440 -1.7017 0.9650
6.6567 5.6861 -1.7017 0.9650
5.9243 6.4456 -1.7017 0.9650
5.1059 7.1115 -1.7017 0.9650
4.2133 7.6741 -1.7017 0.9650
3.2595 8.1252 -1.7017 0.9650
2.2583 8.4584 -1.7017 0.9650
1.2244 8.6686 -1.7017 0.9650
0.1727 8.7530 -1.7017 0.9650
-0.8816 8.7102 -1.7017 0.9650
-1.9230 8.5408 -1.7017 0.9650
-2.9365 8.2475 -1.7017 0.9650
-3.9074 7.8343 -1.7017 0.9650
-4.8215 7.3073 -1.7017 0.9650
-5.6655 6.6743 -1.7017 0.9650
-6.4273 5.9442 -1.7017 0.9650
-7.0957 5.1278 -1.7017 0.9650
-7.6611 4.2370 -1.7017 0.9650
-8.1151 3.2846 -1.7017 0.9650
-8.4513 2.2845 -1.7017 0.9650
-8.6648 1.2511 -1.7017 0.9650
-8.7524 0.1997 -1.7017 0.9650
-8.7128 -0.8547 -1.7017 0.9650
-8.5467 -1.8966 -1.7017 0.9650
-8.2565 -2.9111 -1.7017 0.9650
-7.8463 -3.8832 -1.7017 0.9650
-7.3222 -4.7989 -1.7017 0.9650
-6.6917 -5.6449 -1.7017 0.9650
-5.9640 -6.4089 -1.7017 0.9650
-5.1497 -7.0799 -1.7017 0.9650
-4.2606 -7.6480 -1.7017 0.9650
-3.3096 -8.1050 -1.7017 0.9650
-2.3105 -8.4442 -1.7017 0.9650
-1.2779 -8.6609 -1.7017 0.9650
-0.2267 -8.7517 -1.7017 0.9650
0.8278 -8.7154 -1.7017 0.9650
1.7054 -7.7986 -1.5517 0.9680
2.8855 -8.2654 -1.7017 0.9650
3.8590 -7.8583 -1.7017 0.9650
4.7763 -7.3370 -1.7017 0.9650
5.6242 -6.7091 -1.7017 0.9650
6.3905 -5.9838 -1.7017 0.9650
7.0639 -5.1715 -1.7017 0.9650
7.6348 -4.2842 -1.7017 0.9650
8.0947 -3.3346 -1.7017 0.9650
8.4371 -2.3366 -1.7017 0.9650
8.6569 -1.3046 -1.7017 0.9650
8.7510 -0.2537 -1.7017 0.9650
8.7179 0.8009 -1.7017 0.9650
8.5583 1.8439 -1.7017 0.9650
8.2743 2.8600 -1.7017 0.9650
7.8701 3.8347 -1.7017 0.9650
7.3517 4.7536 -1.7017 0.9650
6.7264 5.6035 -1.7017 0.9650
6.0035 6.3720 -1.7017 0.9650
5.1933 7.0479 -1.7017 0.9650
4.3077 7.6215 -1.7017 0.9650
3.3595 8.0844 -1.7017 0.9650
2.3626 8.4298 -1.7017 0.9650
1.3313 8.6528 -1.7017 0.9650
0.2807 8.7502 -1.7017 0.9650
-0.7740 8.7204 -1.7017 0.9650
-1.8175 8.5639 -1.7017 0.9650
-2.8345 8.2831 -1.7017 0.9650
-3.8104 7.8819 -1.7017 0.9650
-4.7309 7.3663 -1.7017 0.9650
-5.5827 6.7437 -1.7017 0.9650
-6.3535 6.0231 -1.7017 0.9650
-7.0319 5.2150 -1.7017 0.9650
-7.6082 4.3312 -1.7017 0.9650
-8.0740 3.3845 -1.7017 0.9650
-8.4225 2.3886 -1.7017 0.9650
-8.6487 1.3580 -1.7017 0.9650
-8.7492 0.3077 -1.7017 0.9650
-8.7227 -0.7471 -1.7017 0.9650
-8.5695 -1.7910 -1.7017 0.9650
-8.2918 -2.8089 -1.7017 0.9650
-7.8937 -3.7860 -1.7017 0.9650
-7.3809 -4.7081 -1.7017 0.9650
-6.7609 -5.5619 -1.7017 0.9650
-6.0427 -6.3348 -1.7017 0.9650
-5.2367 -7.0158 -1.7017 0.9650
-4.3547 -7.5948 -1.7017 0.9650
-3.4094 -8.0635 -1.7017 0.9650
-2.4146 -8.4151 -1.7017 0.9650
-1.3847 -8.6445 -1.7017 0.9650
-0.3347 -8.7482 -1.7017 0.9650
0.7202 -8.7250 -1.7017 0.9650
1.6048 -7.7986 -1.5477 0.9681
2.7833 -8.3004 -1.7017 0.9650
3.7617 -7.9053 -1.7017 0.9650
4.6854 -7.3954 -1.7017 0.9650
5.5410 -6.7780 -1.7017 0.9650
6.3161 -6.0622 -1.7017 0.9650
6.9996 -5.2583 -1.7017 0.9650
7.5813 -4.3781 -1.7017 0.9650
8.0529 -3.4342 -1.7017 0.9650
8.4076 -2.4405 -1.7017 0.9650
8.6401 -1.4114 -1.7017 0.9650
8.7472 -0.3617 -1.7017 0.9650
8.7272 0.6932 -1.7017 0.9650
8.5804 1.7381 -1.7017 0.9650
8.3090 2.7577 -1.7017 0.9650
7.9169 3.7373 -1.7017 0.9650
7.4098 4.6625 -1.7017 0.9650
6.7951 5.5201 -1.7017 0.9650
6.0817 6.2974 -1.7017 0.9650
5.2799 6.9833 -1.7017 0.9650
4.4014 7.5678 -1.7017 0.9650
3.4591 8.0423 -1.7017 0.9650
2.4665 8.4000 -1.7017 0.9650
1.4380 8.6357 -1.7017 0.9650
0.3887 8.7460 -1.7017 0.9650
-0.6663 8.7293 -1.7017 0.9650
-1.7116 8.5857 -1.7017 0.9650
-2.7320 8.3175 -1.7017 0.9650
-3.7128 7.9284 -1.7017 0.9650
-4.6396 7.4241 -1.7017 0.9650
-5.4991 6.8121 -1.7017 0.9650
-6.2786 6.1010 -1.7017 0.9650
-6.9670 5.3014 -1.7017 0.9650
-7.5541 4.4248 -1.7017 0.9650
-8.0316 3.4839 -1.7017 0.9650
-8.3924 2.4924 -1.7017 0.9650
-8.6313 1.4647 -1.7017 0.9650
-8.7448 0.4157 -1.7017 0.9650
-8.7313 -0.6393 -1.7017 0.9650
-8.5909 -1.6851 -1.7017 0.9650
-8.3258 -2.7064 -1.7017 0.9650
-7.9398 -3.6883 -1.7017 0.9650
-7.4384 -4.6167 -1.7017 0.9650
-6.8290 -5.4780 -1.7017 0.9650
-6.1204 -6.2598 -1.7017 0.9650
-5.3229 -6.9506 -1.7017 0.9650
-4.4481 -7.5405 -1.7017 0.9650
-3.5087 -8.0208 -1.7017 0.9650
-2.5182 -8.3846 -1.7017 0.9650
-1.4913 -8.6267 -1.7017 0.9650
-0.4426 -8.7435 -1.7017 0.9650
0.6124 -8.7332 -1.7017 0.9650
1.5047 -7.7986 -1.5439 0.9682
2.6807 -8.3341 -1.7017 0.9650
3.6638 -7.9511 -1.7017 0.9650
4.5937 -7.4526 -1.7017 0.9650
5.4569 -6.8459 -1.7017 0.9650
6.2409 -6.1397 -1.7017 0.9650
6.9341 -5.3443 -1.7017 0.9650
7.5267 -4.4713 -1.7017 0.9650
8.0099 -3.5334 -1.7017 0.9650
8.3768 -2.5441 -1.7017 0.9650
8.6221 -1.5179 -1.7017 0.9650
8.7420 -0.4696 -1.7017 0.9650
8.7350 0.5855 -1.7017 0.9650
8.6012 1.6320 -1.7017 0.9650
8.3424 2.6549 -1.7017 0.9650
7.9624 3.6392 -1.7017 0.9650
7.4668 4.5707 -1.7017 0.9650
6.8627 5.4357 -1.7017 0.9650
6.1589 6.2219 -1.7017 0.9650
5.3657 6.9176 -1.7017 0.9650
4.4945 7.5129 -1.7017 0.9650
3.5581 7.9990 -1.7017 0.9650
2.5700 8.3689 -1.7017 0.9650
1.5445 8.6173 -1.7017 0.9650
0.4966 8.7406 -1.7017 0.9650
-0.5585 8.7368 -1.7017 0.9650
-1.6055 8.6062 -1.7017 0.9650
-2.6292 8.3505 -1.7017 0.9650
-3.6146 7.9736 -1.7017 0.9650
-4.5476 7.4808 -1.7017 0.9650
-5.4146 6.8794 -1.7017 0.9650
-6.2028 6.1781 -1.7017 0.9650
-6.9010 5.3870 -1.7017 0.9650
-7.4990 4.5177 -1.7017 0.9650
-7.9880 3.5827 -1.7017 0.9650
-8.3610 2.5958 -1.7017 0.9650
-8.6125 1.5711 -1.7017 0.9650
-8.7390 0.5236 -1.7017 0.9650
-8.7385 -0.5316 -1.7017 0.9650
-8.6111 -1.5789 -1.7017 0.9650
-8.3586 -2.6034 -1.7017 0.9650
-7.9847 -3.5900 -1.7017 0.9650
-7.4948 -4.5245 -1.7017 0.9650
-6.8961 -5.3933 -1.7017 0.9650
-6.1972 -6.1837 -1.7017 0.9650
-5.4083 -6.8844 -1.7017 0.9650
-4.5408 -7.4850 -1.7017 0.9650
-3.6074 -7.9769 -1.7017 0.9650
-2.6215 -8.3529 -1.7017 0.9650
-1.5976 -8.6076 -1.7017 0.9650
-0.5505 -8.7373 -1.7017 0.9650
0.5046 -8.7401 -1.7017 0.9650
1.5524 -8.6159 -1.7017 0.9650
2.5776 -8.3666 -1.7017 0.9650
3.5654 -7.9958 -1.7017 0.9650
4.5014 -7.5088 -1.7017 0.9650
5.3720 -6.9127 -1.7017 0.9650
6.1646 -6.2162 -1.7017 0.9650
6.8676 -5.4295 -1.7017 0.9650
7.4709 -4.5639 -1.7017 0.9650
7.9657 -3.6320 -1.7017 0.9650
8.3448 -2.6473 -1.7017 0.9650
8.6027 -1.6242 -1.7017 0.9650
8.7356 -0.5775 -1.7017 0.9650
8.7416 0.4776 -1.7017 0.9650
8.6207 1.5257 -1.7017 0.9650
8.3745 2.5518 -1.7017 0.9650
8.0067 3.5407 -1.7017 0.9650
7.5226 4.4782 -1.7017 0.9650
6.9293 5.3506 -1.7017 0.9650
6.2352 6.1454 -1.7017 0.9650
5.4507 6.8509 -1.7017 0.9650
4.5869 7.4568 -1.7017 0.9650
3.6565 7.9545 -1.7017 0.9650
2.6731 8.3366 -1.7017 0.9650
1.6507 8.5976 -1.7017 0.9650
0.6044 8.7338 -1.7017 0.9650
-0.4506 8.7430 -1.7017 0.9650
-1.4991 8.6253 -1.7017 0.9650
-2.5259 8.3823 -1.7017 0.9650
-3.5160 8.0176 -1.7017 0.9650
-4.4550 7.5364 -1.7017 0.9650
-5.3292 6.9457 -1.7017 0.9650
-6.1261 6.2542 -1.7017 0.9650
-6.8340 5.4718 -1.7017 0.9650
-7.4426 4.6099 -1.7017 0.9650
-7.9432 3.6811 -1.7017 0.9650
-8.3283 2.6988 -1.7017 0.9650
-8.5925 1.6773 -1.7017 0.9650
-8.7319 0.6314 -1.7017 0.9650
-8.7444 -0.4236 -1.7017 0.9650
-8.6299 -1.4725 -1.7017 0.9650
-8.3901 -2.5000 -1.7017 0.9650
-8.0284 -3.4912 -1.7017 0.9650
-7.5501 -4.4317 -1.7017 0.9650
-6.9621 -5.3078 -1.7017 0.9650
-6.2731 -6.1068 -1.7017 0.9650
-5.4929 -6.8171 -1.7017 0.9650
-4.6328 -7.4284 -1.7017 0.9650
-3.7056 -7.9318 -1.7017 0.9650
-2.7245 -8.3199 -1.7017 0.9650
-1.7038 -8.5873 -1.7017 0.9650
-0.6584 -8.7299 -1.7017 0.9650
0.3967 -8.7457 -1.7017 0.9650
1.4459 -8.6344 -1.7017 0.9650
2.4741 -8.3978 -1.7017 0.9650
3.4664 -8.0392 -1.7017 0.9650
4.4083 -7.5638 -1.7017 0.9650
5.2863 -6.9785 -1.7017 0.9650
6.0874 -6.2919 -1.7017 0.9650
6.8001 -5.5139 -1.7017 0.9650
7.4140 -4.6558 -1.7017 0.9650
7.9203 -3.7300 -1.7017 0.9650
8.3115 -2.7501 -1.7017 0.9650
8.5820 -1.7303 -1.7017 0.9650
8.7278 -0.6853 -1.7017 0.9650
8.7468 0.3696 -1.7017 0.9650
8.6388 1.4192 -1.7017 0.9650
8.4054 2.4482 -1.7017 0.9650
8.0498 3.4416 -1.7017 0.9650
7.5773 4.3850 -1.7017 0.9650
6.9948 5.2647 -1.7017 0.9650
6.3106 6.0680 -1.7017 0.9650
5.5348 6.7830 -1.7017 0.9650
4.6786 7.3996 -1.7017 0.9650
3.7544 7.9087 -1.7017 0.9650
2.7758 8.3029 -1.7017 0.9650
1.7567 8.5766 -1.7017 0.9650
0.7122 8.7256 -1.7017 0.9650
-0.3427 8.7479 -1.7017 0.9650
-1.3926 8.6432 -1.7017 0.9650
-2.4222 8.4129 -1.7017 0.9650
-3.4167 8.0604 -1.7017 0.9650
-4.3616 7.5908 -1.7017 0.9650
-5.2431 7.0110 -1.7017 0.9650
-6.0485 6.3293 -1.7017 0.9650
-6.7659 5.5557 -1.7017 0.9650
-7.3852 4.7014 -1.7017 0.9650
-7.8971 3.7788 -1.7017 0.9650
-8.2944 2.8014 -1.7017 0.9650
-8.5711 1.7832 -1.7017 0.9650
-8.7234 0.7392 -1.7017 0.9650
-8.7490 -0.3157 -1.7017 0.9650
-8.6474 -1.3659 -1.7017 0.9650
-8.4203 -2.3963 -1.7017 0.9650
-8.0709 -3.3918 -1.7017 0.9650
-7.6043 -4.3381 -1.7017 0.9650
-7.0271 -5.2214 -1.7017 0.9650
-6.3479 -6.0289 -1.7017 0.9650
-5.5766 -6.7488 -1.7017 0.9650
-5.2029 -5.2212 -1.7017 0.9702
-4.5370 -5.8092 -1.7017 0.9702
-3.8052 -6.3129 -1.7017 0.9702
-3.0181 -6.7248 -1.7017 0.9702
-2.1872 -7.0390 -1.7017 0.9702
-1.3245 -7.2510 -1.7017 0.9702
-0.4426 -7.3577 -1.7017 0.9702
0.4457 -7.3575 -1.7017 0.9702
1.3276 -7.2505 -1.7017 0.9702
2.1902 -7.0381 -1.7017 0.9702
3.0210 -6.7235 -1.7017 0.9702
3.8079 -6.3112 -1.7017 0.9702
4.5395 -5.8073 -1.7017 0.9702
5.2052 -5.2190 -1.7017 0.9702
5.7952 -4.5549 -1.7017 0.9702
6.3011 -3.8247 -1.7017 0.9702
6.7154 -3.0389 -1.7017 0.9702
7.0322 -2.2089 -1.7017 0.9702
7.2469 -1.3469 -1.7017 0.9702
7.3563 -0.4653 -1.7017 0.9702
7.3589 0.4230 -1.7017 0.9702
7.2545 1.3052 -1.7017 0.9702
7.0448 2.1685 -1.7017 0.9702
6.7328 3.0002 -1.7017 0.9702
6.3230 3.7884 -1.7017 0.9702
5.8213 4.5215 -1.7017 0.9702
5.2351 5.1890 -1.7017 0.9702
4.5728 5.7811 -1.7017 0.9702
3.8441 6.2892 -1.7017 0.9702
3.0596 6.7060 -1.7017 0.9702
2.2306 7.0254 -1.7017 0.9702
1.3693 7.2427 -1.7017 0.9702
0.4880 7.3548 -1.7017 0.9702
-0.4003 7.3601 -1.7017 0.9702
-1.2829 7.2585 -1.7017 0.9702
-2.1467 7.0515 -1.7017 0.9702
-2.9795 6.7420 -1.7017 0.9702
-3.7689 6.3346 -1.7017 0.9702
-4.5036 5.8352 -1.7017 0.9702
-5.1728 5.2510 -1.7017 0.9702
-5.7670 4.5906 -1.7017 0.9702
-6.2774 3.8635 -1.7017 0.9702
-6.6965 3.0803 -1.7017 0.9702
-7.0185 2.2523 -1.7017 0.9702
-7.2385 1.3916 -1.7017 0.9702
-7.3533 0.5107 -1.7017 0.9702
-7.3613 -0.3776 -1.7017 0.9702
-7.2624 -1.2604 -1.7017 0.9702
-7.0581 -2.1250 -1.7017 0.9702
-6.7512 -2.9586 -1.7017 0.9702
-6.3462 -3.7493 -1.7017 0.9702
-5.8491 -4.4855 -1.7017 0.9702
-5.2670 -5.1566 -1.7017 0.9702
-4.6084 -5.7528 -1.7017 0.9702
-3.8829 -6.2654 -1.7017 0.9702
-3.1009 -6.6870 -1.7017 0.9702
-2.2739 -7.0115 -1.7017 0.9702
-1.4139 -7.2341 -1.7017 0.9702
-0.5334 -7.3517 -1.7017 0.9702
0.3549 -7.3625 -1.7017 0.9702
1.2380 -7.2663 -1.7017 0.9702
2.1032 -7.0646 -1.7017 0.9702
2.9378 -6.7603 -1.7017 0.9702
3.7297 -6.3578 -1.7017 0.9702
4.4675 -5.8629 -1.7017 0.9702
5.1403 -5.2829 -1.7017 0.9702
5.7385 -4.6261 -1.7017 0.9702
6.2534 -3.9022 -1.7017 0.9702
6.6774 -3.1215 -1.7017 0.9702
7.0044 -2.2956 -1.7017 0.9702
7.2297 -1.4363 -1.7017 0.9702
7.3500 -0.5561 -1.7017 0.9702
7.3635 0.3322 -1.7017 0.9702
7.2701 1.2156 -1.7017 0.9702
7.0710 2.0814 -1.7017 0.9702
6.7693 2.9169 -1.7017 0.9702
6.3692 3.7101 -1.7017 0.9702
5.8767 4.4494 -1.7017 0.9702
5.2987 5.1240 -1.7017 0.9702
4.6438 5.7242 -1.7017 0.9702
3.9214 6.2413 -1.7017 0.9702
3.1421 6.6677 -1.7017 0.9702
2.3172 6.9973 -1.7017 0.9702
1.4586 7.2253 -1.7017 0.9702
0.5788 7.3482 -1.7017 0.9702
-0.3094 7.3645 -1.7017 0.9702
-1.1932 7.2738 -1.7017 0.9702
-2.0595 7.0774 -1.7017 0.9702
-2.8960 6.7783 -1.7017 0.9702
-3.6904 6.3807 -1.7017 0.9702
-4.4312 5.8904 -1.7017 0.9702
-5.1076 5.3145 -1.7017 0.9702
-5.7099 4.6614 -1.7017 0.9702
-6.2292 3.9407 -1.7017 0.9702
-6.6580 3.1627 -1.7017 0.9702
-6.9901 2.3388 -1.7017 0.9702
-7.2207 1.4809 -1.7017 0.9702
-7.3464 0.6014 -1.7017 0.9702
-7.3654 -0.2867 -1.7017 0.9702
-7.2775 -1.1707 -1.7017 0.9702
-7.0838 -2.0377 -1.7017 0.9702
-6.7872 -2.8751 -1.7017 0.9702
-6.3920 -3.6707 -1.7017 0.9702
-5.9040 -4.4130 -1.7017 0.9702
-5.3302 -5.0912 -1.7017 0.9702
-4.6790 -5.6955 -1.7017 0.9702
-3.9599 -6.2170 -1.7017 0.9702
-3.1832 -6.6482 -1.7017 0.9702
-2.3603 -6.9829 -1.7017 0.9702
-1.5031 -7.2161 -1.7017 0.9702
-0.6241 -7.3445 -1.7017 0.9702
0.2640 -7.3663 -1.7017 0.9702
1.1482 -7.2810 -1.7017 0.9702
2.0158 -7.0900 -1.7017 0.9702
2.8541 -6.7960 -1.7017 0.9702
3.6510 -6.4033 -1.7017 0.9702
4.3948 -5.9176 -1.7017 0.9702
5.0747 -5.3459 -1.7017 0.9702
5.6810 -4.6966 -1.7017 0.9702
6.2047 -3.9791 -1.7017 0.9702
6.6384 -3.2037 -1.7017 0.9702
6.9756 -2.3819 -1.7017 0.9702
7.2114 -1.5254 -1.7017 0.9702
7.3426 -0.6468 -1.7017 0.9702
7.3671 0.2413 -1.7017 0.9702
7.2845 1.1258 -1.7017 0.9702
7.0962 1.9939 -1.7017 0.9702
6.8048 2.8331 -1.7017 0.9702
6.4145 3.6312 -1.7017 0.9702
5.9311 4.3765 -1.7017 0.9702
5.3616 5.0582 -1.7017 0.9702
4.7141 5.6665 -1.7017 0.9702
3.9982 6.1924 -1.7017 0.9702
3.2242 6.6285 -1.7017 0.9702
2.4034 6.9682 -1.7017 0.9702
1.5476 7.2067 -1.7017 0.9702
0.6694 7.3405 -1.7017 0.9702
-0.2185 7.3678 -1.7017 0.9702
-1.1033 7.2880 -1.7017 0.9702
-1.9720 7.1023 -1.7017 0.9702
-2.8121 6.8135 -1.7017 0.9702
-3.6114 6.4257 -1.7017 0.9702
-4.3582 5.9446 -1.7017 0.9702
-5.0416 5.3771 -1.7017 0.9702
-5.6519 4.7316 -1.7017 0.9702
-6.1801 4.0173 -1.7017 0.9702
-6.6185 3.2446 -1.7017 0.9702
-6.9607 2.4249 -1.7017 0.9702
-7.2019 1.5699 -1.7017 0.9702
-7.3385 0.6921 -1.7017 0.9702
-7.3684 -0.1958 -1.7017 0.9702
-7.2913 -1.0808 -1.7017 0.9702
-7.1084 -1.9501 -1.7017 0.9702
-6.8221 -2.7911 -1.7017 0.9702
-6.4368 -3.5915 -1.7017 0.9702
-5.9580 -4.3398 -1.7017 0.9702
-5.3927 -5.0250 -1.7017 0.9702
-4.7490 -5.6373 -1.7017 0.9702
-4.0363 -6.1676 -1.7017 0.9702
-3.2650 -6.6084 -1.7017 0.9702
-2.4463 -6.9532 -1.7017 0.9702
-1.5921 -7.1970 -1.7017 0.9702
-0.7147 -7.3363 -1.7017 0.9702
0.1730 -7.3690 -1.7017 0.9702
1.0583 -7.2946 -1.7017 0.9702
1.9282 -7.1144 -1.7017 0.9702
2.7700 -6.8307 -1.7017 0.9702
3.5716 -6.4479 -1.7017 0.9702
4.3214 -5.9714 -1.7017 0.9702
5.0084 -5.4081 -1.7017 0.9702
5.6226 -4.7664 -1.7017 0.9702
6.1552 -4.0554 -1.7017 0.9702
6.5983 -3.2854 -1.7017 0.9702
6.9456 -2.4678 -1.7017 0.9702
7.1921 -1.6143 -1.7017 0.9702
7.3340 -0.7373 -1.7017 0.9702
7.3695 0.1503 -1.7017 0.9702
7.2979 1.0357 -1.7017 0.9702
7.1203 1.9062 -1.7017 0.9702
6.8392 2.7489 -1.7017 0.9702
6.4589 3.5517 -1.7017 0.9702
5.9847 4.3029 -1.7017 0.9702
5.4236 4.9916 -1.7017 0.9702
4.7837 5.6079 -1.7017 0.9702
4.0743 6.1426 -1.7017 0.9702
3.3058 6.5881 -1.7017 0.9702
2.4892 6.9380 -1.7017 0.9702
1.6365 7.1871 -1.7017 0.9702
0.7600 7.3317 -1.7017 0.9702
-0.1276 7.3699 -1.7017 0.9702
-1.0132 7.3010 -1.7017 0.9702
-1.8842 7.1261 -1.7017 0.9702
-2.7278 6.8477 -1.7017 0.9702
-3.5318 6.4698 -1.7017 0.9702
-4.2844 5.9979 -1.7017 0.9702
-4.9749 5.4390 -1.7017 0.9702
-5.5931 4.8010 -1.7017 0.9702
-6.1300 4.0932 -1.7017 0.9702
-6.5779 3.3261 -1.7017 0.9702
-6.9303 2.5106 -1.7017 0.9702
-7.1820 1.6586 -1.7017 0.9702
-7.3293 0.7826 -1.7017 0.9702
-7.3703 -0.1048 -1.7017 0.9702
-7.3041 -0.9907 -1.7017 0.9702
-7.1319 -1.8622 -1.7017 0.9702
-6.8561 -2.7067 -1.7017 0.9702
-6.4807 -3.5118 -1.7017 0.9702
-6.0111 -4.2659 -1.7017 0.9702
-5.4543 -4.9581 -1.7017 0.9702
-4.8182 -5.5782 -1.7017 0.9702
-4.1122 -6.1173 -1.7017 0.9702
-3.3464 -6.5676 -1.7017 0.9702
-2.5320 -6.9225 -1.7017 0.9702
-1.6808 -7.1768 -1.7017 0.9702
-0.8052 -7.3269 -1.7017 0.9702
0.0821 -7.3706 -1.7017 0.9702
0.9682 -7.3072 -1.7017 0.9702
1.8402 -7.1376 -1.7017 0.9702
2.6855 -6.8644 -1.7017 0.9702
3.4918 -6.4915 -1.7017 0.9702
4.2474 -6.0243 -1.7017 0.9702
4.9412 -5.4696 -1.7017 0.9702
5.5633 -4.8354 -1.7017 0.9702
6.1046 -4.1310 -1.7017 0.9702
6.5573 -3.3666 -1.7017 0.9702
6.9146 -2.5533 -1.7017 0.9702
7.1716 -1.7029 -1.7017 0.9702
7.3244 -0.8278 -1.7017 0.9702
7.3708 0.0593 -1.7017 0.9702
7.3101 0.9456 -1.7017 0.9702
7.1433 1.8182 -1.7017 0.9702
6.8727 2.6643 -1.7017 0.9702
6.5022 3.4717 -1.7017 0.9702
6.0374 4.2287 -1.7017 0.9702
5.4848 4.9243 -1.7017 0.9702
4.8525 5.5484 -1.7017 0.9702
4.1498 6.0919 -1.7017 0.9702
3.3868 6.5469 -1.7017 0.9702
2.5746 6.9067 -1.7017 0.9702
1.7251 7.1663 -1.7017 0.9702
0.8504 7.3218 -1.7017 0.9702
-0.0366 7.3709 -1.7017 0.9702
-0.9230 7.3130 -1.7017 0.9702
-1.7961 7.1488 -1.7017 0.9702
-2.6431 6.8808 -1.7017 0.9702
-3.4516 6.5129 -1.7017 0.9702
-4.2101 6.0504 -1.7017 0.9702
-4.9074 5.5000 -1.7017 0.9702
-5.5334 4.8696 -1.7017 0.9702
-6.0790 4.1686 -1.7017 0.9702
-6.5364 3.4070 -1.7017 0.9702
-6.8988 2.5959 -1.7017 0.9702
-7.1610 1.7472 -1.7017 0.9702
-7.3191 0.8730 -1.7017 0.9702
-7.3710 -0.0138 -1.7017 0.9702
-7.3158 -0.9005 -1.7017 0.9702
-7.1543 -1.7740 -1.7017 0.9702
-6.8890 -2.6218 -1.7017 0.9702
-6.5235 -3.4315 -1.7017 0.9702
-6.0633 -4.1914 -1.7017 0.9702
-5.5151 -4.8904 -1.7017 0.9702
-4.8867 -5.5183 -1.7017 0.9702
-4.1873 -6.0661 -1.7017 0.9702
-3.4272 -6.5258 -1.7017 0.9702
-2.6172 -6.8907 -1.7017 0.9702
-1.7693 -7.1555 -1.7017 0.9702
-0.8956 -7.3164 -1.7017 0.9702
-0.0089 -7.3710 -1.7017 0.9702
0.8779 -7.3185 -1.7017 0.9702
1.7520 -7.1598 -1.7017 0.9702
2.6006 -6.8970 -1.7017 0.9702
3.4114 -6.5341 -1.7017 0.9702
4.1727 -6.0762 -1.7017 0.9702
4.8733 -5.5301 -1.7017 0.9702
5.5032 -4.9037 -1.7017 0.9702
6.0532 -4.2060 -1.7017 0.9702
6.5152 -3.4473 -1.7017 0.9702
6.8826 -2.6385 -1.7017 0.9702
7.1500 -1.7913 -1.7017 0.9702
7.3136 -0.9181 -1.7017 0.9702
7.3709 -0.0317 -1.7017 0.9702
7.3212 0.8553 -1.7017 0.9702
7.1652 1.7298 -1.7017 0.9702
6.9050 2.5793 -1.7017 0.9702
6.5446 3.3912 -1.7017 0.9702
6.0891 4.1539 -1.7017 0.9702
5.5451 4.8562 -1.7017 0.9702
4.9207 5.4881 -1.7017 0.9702
4.2247 6.0402 -1.7017 0.9702
3.4674 6.5045 -1.7017 0.9702
2.6597 6.8744 -1.7017 0.9702
1.8134 7.1445 -1.7017 0.9702
0.9407 7.3107 -1.7017 0.9702
0.0544 7.3708 -1.7017 0.9702
-0.8327 7.3238 -1.7017 0.9702
-1.7077 7.1705 -1.7017 0.9702
-2.5579 6.9130 -1.7017 0.9702
-3.3710 6.5550 -1.7017 0.9702
-4.1351 6.1019 -1.7017 0.9702
-4.8391 5.5601 -1.7017 0.9702
-5.4729 4.9376 -1.7017 0.9702
-6.0271 4.2433 -1.7017 0.9702
-6.4938 3.4874 -1.7017 0.9702
-6.8662 2.6809 -1.7017 0.9702
-7.1388 1.8354 -1.7017 0.9702
-7.3078 0.9633 -1.7017 0.9702
-7.3706 0.0771 -1.7017 0.9702
-7.3264 -0.8101 -1.7017 0.9702
-7.1757 -1.6856 -1.7017 0.9702
-6.9208 -2.5366 -1.7017 0.9702
-6.5654 -3.3508 -1.7017 0.9702
-6.1146 -4.1162 -1.7017 0.9702
-5.5750 -4.8219 -1.7017 0.9702
-4.9544 -5.4576 -1.7017 0.9702
-4.2619 -6.0140 -1.7017 0.9702
-3.5075 -6.4830 -1.7017 0.9702
-2.7021 -6.8579 -1.7017 0.9702
-1.8574 -7.1331 -1.7017 0.9702
-0.9858 -7.3048 -1.7017 0.9702
-0.0999 -7.3703 -1.7017 0.9702
0.7875 -7.3288 -1.7017 0.9702
1.6634 -7.1809 -1.7017 0.9702
2.5152 -6.9286 -1.7017 0.9702
3.3305 -6.5757 -1.7017 0.9702
4.0974 -6.1273 -1.7017 0.9702
4.8047 -5.5899 -1.7017 0.9702
5.4423 -4.9713 -1.7017 0.9702
6.0008 -4.2804 -1.7017 0.9702
6.4722 -3.5275 -1.7017 0.9702
6.8495 -2.7232 -1.7017 0.9702
7.1274 -1.8794 -1.7017 0.9702
7.3017 -1.0084 -1.7017 0.9702
7.3700 -0.1226 -1.7017 0.9702
7.3312 0.7649 -1.7017 0.9702
7.1860 1.6413 -1.7017 0.9702
6.9363 2.4938 -1.7017 0.9702
6.5859 3.3102 -1.7017 0.9702
6.1399 4.0784 -1.7017 0.9702
5.6047 4.7874 -1.7017 0.9702
4.9880 5.4269 -1.7017 0.9702
4.2989 5.9876 -1.7017 0.9702
3.5474 6.4612 -1.7017 0.9702
2.7444 6.8411 -1.7017 0.9702
1.9014 7.1215 -1.7017 0.9702
1.0309 7.2986 -1.7017 0.9702
0.1454 7.3696 -1.7017 0.9702
-0.7422 7.3335 -1.7017 0.9702
-1.6191 7.1910 -1.7017 0.9702
-2.4724 6.9440 -1.7017 0.9702
-3.2898 6.5961 -1.7017 0.9702
-4.0595 6.1525 -1.7017 0.9702
-4.7701 5.6194 -1.7017 0.9702
-5.4115 5.0047 -1.7017 0.9702
-5.9743 4.3174 -1.7017 0.9702
-6.4503 3.5673 -1.7017 0.9702
-6.8326 2.7654 -1.7017 0.9702
-7.1156 1.9234 -1.7017 0.9702
-7.2954 1.0534 -1.7017 0.9702
-7.3691 0.1681 -1.7017 0.9702
-7.3358 -0.7196 -1.7017 0.9702
-7.1960 -1.5969 -1.7017 0.9702
-6.9516 -2.4510 -1.7017 0.9702
-6.6062 -3.2695 -1.7017 0.9702
-6.1649 -4.0404 -1.7017 0.9702
-5.6341 -4.7528 -1.7017 0.9702
-5.0214 -5.3960 -1.7017 0.9702
-4.3358 -5.9609 -1.7017 0.9702
-3.5872 -6.4392 -1.7017 0.9702
-2.7865 -6.8240 -1.7017 0.9702
-1.9454 -7.1097 -1.7017 0.9702
-1.0759 -7.2921 -1.7017 0.9702
-0.1908 -7.3685 -1.7017 0.9702
0.6970 -7.3380 -1.7017 0.9702
1.5747 -7.2008 -1.7017 0.9702
2.4295 -6.9591 -1.7017 0.9702
3.2491 -6.6163 -1.7017 0.9702
4.0214 -6.1774 -1.7017 0.9702
4.7353 -5.6487 -1.7017 0.9702
5.3805 -5.0381 -1.7017 0.9702
5.9475 -4.3542 -1.7017 0.9702
6.4281 -3.6071 -1.7017 0.9702
6.8154 -2.8076 -1.7017 0.9702
7.1036 -1.9673 -1.7017 0.9702
7.2887 -1.0984 -1.7017 0.9702
7.3679 -0.2136 -1.7017 0.9702
7.3401 0.6743 -1.7017 0.9702
7.2057 1.5524 -1.7017 0.9702
6.9666 2.4080 -1.7017 0.9702
6.6263 3.2286 -1.7017 0.9702
6.1898 4.0023 -1.7017 0.9702
5.6633 4.7179 -1.7017 0.9702
5.0546 5.3649 -1.7017 0.9702
4.3725 5.9340 -1.7017 0.9702
3.6269 6.4170 -1.7017 0.9702
2.8286 6.8067 -1.7017 0.9702
1.9892 7.0975 -1.7017 0.9702
1.1209 7.2853 -1.7017 0.9702
0.2363 7.3672 -1.7017 0.9702
-0.6517 7.3422 -1.7017 0.9702
-1.5302 7.2104 -1.7017 0.9702
-2.3865 6.9740 -1.7017 0.9702
-3.2082 6.6362 -1.7017 0.9702
-3.9832 6.2021 -1.7017 0.9702
-4.7004 5.6779 -1.7017 0.9702
-5.3493 5.0712 -1.7017 0.9702
-5.9205 4.3908 -1.7017 0.9702
-6.4057 3.6467 -1.7017 0.9702
-6.7979 2.8496 -1.7017 0.9702
-7.0914 2.0111 -1.7017 0.9702
-7.2818 1.1434 -1.7017 0.9702
-7.3665 0.2591 -1.7017 0.9702
-7.3441 -0.6290 -1.7017 0.9702
-7.2151 -1.5080 -1.7017 0.9702
-6.9813 -2.3650 -1.7017 0.9702
-6.6461 -3.1877 -1.7017 0.9702
-6.2143 -3.9640 -1.7017 0.9702
-5.6923 -4.6828 -1.7017 0.9702
-5.0876 -5.3336 -1.7017 0.9702
-4.4091 -5.9069 -1.7017 0.9702
-3.6664 -6.3945 -1.7017 0.9702
-2.8705 -6.7891 -1.7017 0.9702
-2.0330 -7.0851 -1.7017 0.9702
-1.1658 -7.2782 -1.7017 0.9702
-0.2818 -7.3656 -1.7017 0.9702
0.6063 -7.3460 -1.7017 0.9702
1.4857 -7.2197 -1.7017 0.9702
2.3434 -6.9886 -1.7017 0.9702
3.1671 -6.6559 -1.7017 0.9702
3.9449 -6.2265 -1.7017 0.9702
4.6653 -5.7068 -1.7017 0.9702
5.3179 -5.1041 -1.7017 0.9702
5.8933 -4.4273 -1.7017 0.9702
6.3831 -3.6861 -1.7017 0.9702
6.7802 -2.8915 -1.7017 0.9702
7.0788 -2.0548 -1.7017 0.9702
7.2746 -1.1883 -1.7017 0.9702
7.3647 -0.3045 -1.7017 0.9702
7.3479 0.5837 -1.7017 0.9702
7.2243 1.4634 -1.7017 0.9702
6.9958 2.3218 -1.7017 0.9702
6.6656 3.1466 -1.7017 0.9702
6.2387 3.9256 -1.7017 0.9702
5.7211 4.6476 -1.7017 0.9702
5.1205 5.3021 -1.7017 0.9702
4.4454 5.8796 -1.7017 0.9702
3.7058 6.3717 -1.7017 0.9702
2.9124 6.7713 -1.7017 0.9702
2.0766 7.0724 -1.7017 0.9702
1.2107 7.2709 -1.7017 0.9702
0.3273 7.3637 -1.7017 0.9702
-0.5610 7.3496 -1.7017 0.9702
-1.4411 7.2288 -1.7017 0.9702
-2.3002 7.0029 -1.7017 0.9702
-3.1260 6.6753 -1.7017 0.9702
-3.9064 6.2508 -1.7017 0.9702
-4.6300 5.7354 -1.7017 0.9702
-5.2863 5.1368 -1.7017 0.9702
-5.8659 4.4636 -1.7017 0.9702
-6.3602 3.7255 -1.7017 0.9702
-6.7622 2.9333 -1.7017 0.9702
-7.0660 2.0985 -1.7017 0.9702
-7.2671 1.2332 -1.7017 0.9702
-7.3627 0.3500 -1.7017 0.9702
-7.3513 -0.5383 -1.7017 0.9702
-7.2332 -1.4188 -1.7017 0.9702
-7.0100 -2.2786 -1.7017 0.9702
-6.6849 -3.1054 -1.7017 0.9702
-6.2628 -3.8870 -1.7017 0.9702
-5.7497 -4.6122 -1.7017 0.9702
-5.1531 -5.2704 -1.7017 0.9702
-4.4816 -5.8521 -1.7017 0.9702
-3.7451 -6.3487 -1.7017 0.9702
-2.9541 -6.7531 -1.7017 0.9702
-2.1202 -7.0595 -1.7017 0.9702
-1.2556 -7.2633 -1.7017 0.9702
-0.3727 -7.3616 -1.7017 0.9702
0.5156 -7.3530 -1.7017 0.9702
1.3964 -7.2375 -1.7017 0.9702
2.2570 -7.0170 -1.7017 0.9702
3.0847 -6.6945 -1.7017 0.9702
3.8677 -6.2748 -1.7017 0.9702
4.5945 -5.7639 -1.7017 0.9702
5.2545 -5.1693 -1.7017 0.9702
5.8382 -4.4997 -1.7017 0.9702
6.3371 -3.7646 -1.7017 0.9702
6.7440 -2.9749 -1.7017 0.9702
7.0529 -2.1420 -1.7017 0.9702
7.2594 -1.2780 -1.7017 0.9702
7.3604 -0.3954 -1.7017 0.9702
7.3545 0.4929 -1.7017 0.9702
7.2418 1.3741 -1.7017 0.9702
7.0239 2.2353 -1.7017 0.9702
6.7040 3.0641 -1.7017 0.9702
6.2867 3.8483 -1.7017 0.9702
5.7781 4.5766 -1.7017 0.9702
5.1855 5.2385 -1.7017 0.9702
4.5176 5.8243 -1.7017 0.9702
3.7842 6.3255 -1.7017 0.9702
2.9957 6.7348 -1.7017 0.9702
2.1638 7.0463 -1.7017 0.9702
1.3004 7.2554 -1.7017 0.9702
0.4181 7.3591 -1.7017 0.9702
-0.4702 7.3560 -1.7017 0.9702
-1.3518 7.2460 -1.7017 0.9702
-2.2136 7.0308 -1.7017 0.9702
-3.0434 6.7134 -1.7017 0.9702
-3.8289 6.2985 -1.7017 0.9702
-4.5588 5.7922 -1.7017 0.9702
-5.2225 5.2017 -1.7017 0.9702
-5.8103 4.5356 -1.7017 0.9702
-6.3138 3.8037 -1.7017 0.9702
-6.7255 3.0165 -1.7017 0.9702
-7.0396 2.1855 -1.7017 0.9702
-7.2513 1.3228 -1.7017 0.9702
-7.3578 0.4408 -1.7017 0.9702
-7.3574 -0.4475 -1.7017 0.9702
-7.2501 -1.3294 -1.7017 0.9702
-7.0376 -2.1919 -1.7017 0.9702
-6.7228 -3.0226 -1.7017 0.9702
-6.3103 -3.8095 -1.7017 0.9702
-5.8062 -4.5409 -1.7017 0.9702
-5.2178 -5.2064 -1.7017 0.9702
-4.5535 -5.7963 -1.7017 0.9702
-3.8232 -6.3020 -1.7017 0.9702
-3.0372 -6.7162 -1.7017 0.9702
-2.2072 -7.0328 -1.7017 0.9702
-1.3451 -7.2472 -1.7017 0.9702
-0.4635 -7.3564 -1.7017 0.9702
0.4248 -7.3588 -1.7017 0.9702
1.3070 -7.2542 -1.7017 0.9702
2.1702 -7.0443 -1.7017 0.9702
3.0019 -6.7321 -1.7017 0.9702
3.7899 -6.3220 -1.7017 0.9702
4.5230 -5.8202 -1.7017 0.9702
5.1903 -5.2338 -1.7017 0.9702
5.7822 -4.5714 -1.7017 0.9702
6.2902 -3.8426 -1.7017 0.9702
6.7068 -3.0580 -1.7017 0.9702
7.0259 -2.2289 -1.7017 0.9702
7.2430 -1.3675 -1.7017 0.9702
7.3550 -0.4862 -1.7017 0.9702
7.3600 0.4021 -1.7017 0.9702
7.2582 1.2846 -1.7017 0.9702
7.0510 2.1485 -1.7017 0.9702
6.7413 2.9811 -1.7017 0.9702
6.3337 3.7704 -1.7017 0.9702
5.8341 4.5050 -1.7017 0.9702
5.2498 5.1741 -1.7017 0.9702
4.5892 5.7681 -1.7017 0.9702
3.8620 6.2783 -1.7017 0.9702
3.0786 6.6973 -1.7017 0.9702
2.2506 7.0190 -1.7017 0.9702
1.3898 7.2388 -1.7017 0.9702
0.5089 7.3534 -1.7017 0.9702
-0.3794 7.3612 -1.7017 0.9702
-1.2622 7.2621 -1.7017 0.9702
-2.1267 7.0576 -1.7017 0.9702
-2.9603 6.7505 -1.7017 0.9702
-3.7509 6.3453 -1.7017 0.9702
-4.4870 5.8480 -1.7017 0.9702
-5.1579 5.2657 -1.7017 0.9702
-5.7539 4.6070 -1.7017 0.9702
-6.2663 3.8813 -1.7017 0.9702
-6.6878 3.0993 -1.7017 0.9702
-7.0120 2.2722 -1.7017 0.9702
-7.2345 1.4122 -1.7017 0.9702
-7.3518 0.5316 -1.7017 0.9702
-7.3624 -0.3567 -1.7017 0.9702
-7.2660 -1.2398 -1.7017 0.9702
-7.0641 -2.1049 -1.7017 0.9702
-6.7596 -2.9394 -1.7017 0.9702
-6.3568 -3.7313 -1.7017 0.9702
-5.8618 -4.4689 -1.7017 0.9702
-5.2816 -5.1416 -1.7017 0.9702
-4.6247 -5.7397 -1.7017 0.9702
-3.9006 -6.2544 -1.7017 0.9702
-3.1199 -6.6782 -1.7017 0.9702
-2.2939 -7.0050 -1.7017 0.9702
-1.4345 -7.2301 -1.7017 0.9702
-0.5543 -7.3501 -1.7017 0.9702
0.3340 -7.3634 -1.7017 0.9702
1.2174 -7.2698 -1.7017 0.9702
2.0831 -7.0705 -1.7017 0.9702
2.9185 -6.7686 -1.7017 0.9702
3.7116 -6.3683 -1.7017 0.9702
4.4508 -5.8756 -1.7017 0.9702
5.1253 -5.2975 -1.7017 0.9702
5.7253 -4.6424 -1.7017 0.9702
6.2423 -3.9199 -1.7017 0.9702
6.6685 -3.1405 -1.7017 0.9702
6.9979 -2.3155 -1.7017 0.9702
7.2256 -1.4568 -1.7017 0.9702
7.3484 -0.5770 -1.7017 0.9702
7.3644 0.3112 -1.7017 0.9702
7.2735 1.1949 -1.7017 0.9702
7.0769 2.0612 -1.7017 0.9702
6.7776 2.8977 -1.7017 0.9702
6.3797 3.6920 -1.7017 0.9702
5.8893 4.4326 -1.7017 0.9702
5.3132 5.1089 -1.7017 0.9702
4.6601 5.7110 -1.7017 0.9702
3.9392 6.2301 -1.7017 0.9702
3.1610 6.6588 -1.7017 0.9702
2.3371 6.9907 -1.7017 0.9702
1.4791 7.2211 -1.7017 0.9702
0.5997 7.3466 -1.7017 0.9702
-0.2885 7.3654 -1.7017 0.9702
-1.1725 7.2772 -1.7017 0.9702
-2.0394 7.0833 -1.7017 0.9702
-2.8767 6.7865 -1.7017 0.9702
-3.6723 6.3911 -1.7017 0.9702
-4.4144 5.9029 -1.7017 0.9702
-5.0925 5.3290 -1.7017 0.9702
-5.6966 4.6777 -1.7017 0.9702
-6.2180 3.9584 -1.7017 0.9702
-6.6490 3.1816 -1.7017 0.9702
-6.9835 2.3586 -1.7017 0.9702
-7.2165 1.5014 -1.7017 0.9702
-7.3447 0.6223 -1.7017 0.9702
-7.3662 -0.2658 -1.7017 0.9702
-7.2807 -1.1500 -1.7017 0.9702
-7.0895 -2.0175 -1.7017 0.9702
-6.7953 -2.8558 -1.7017 0.9702
-6.4024 -3.6525 -1.7017 0.9702
-5.9165 -4.3962 -1.7017 0.9702
-5.3447 -5.0760 -1.7017 0.9702
-4.6952 -5.6821 -1.7017 0.9702
-4.4829 -4.4987 -1.7017 0.9740
-3.9092 -5.0053 -1.7017 0.9740
-3.2786 -5.4392 -1.7017 0.9740
-2.6005 -5.7941 -1.7017 0.9740
-1.8845 -6.0649 -1.7017 0.9740
-1.1412 -6.2476 -1.7017 0.9740
-0.3814 -6.3395 -1.7017 0.9740
0.3841 -6.3393 -1.7017 0.9740
1.1439 -6.2471 -1.7017 0.9740
1.8871 -6.0641 -1.7017 0.9740
2.6029 -5.7930 -1.7017 0.9740
3.2809 -5.4378 -1.7017 0.9740
3.9113 -5.0036 -1.7017 0.9740
4.4848 -4.4968 -1.7017 0.9740
4.9932 -3.9246 -1.7017 0.9740
5.4291 -3.2954 -1.7017 0.9740
5.7861 -2.6183 -1.7017 0.9740
6.0591 -1.9032 -1.7017 0.9740
6.2440 -1.1605 -1.7017 0.9740
6.3383 -0.4009 -1.7017 0.9740
6.3405 0.3645 -1.7017 0.9740
6.2506 1.1246 -1.7017 0.9740
6.0699 1.8684 -1.7017 0.9740
5.8010 2.5850 -1.7017 0.9740
5.4479 3.2641 -1.7017 0.9740
5.0157 3.8958 -1.7017 0.9740
4.5106 4.4709 -1.7017 0.9740
3.9400 4.9811 -1.7017 0.9740
3.3121 5.4189 -1.7017 0.9740
2.6362 5.7780 -1.7017 0.9740
1.9219 6.0532 -1.7017 0.9740
1.1798 6.2404 -1.7017 0.9740
0.4205 6.3370 -1.7017 0.9740
-0.3449 6.3416 -1.7017 0.9740
-1.1053 6.2540 -1.7017 0.9740
-1.8497 6.0756 -1.7017 0.9740
-2.5671 5.8090 -1.7017 0.9740
-3.2473 5.4580 -1.7017 0.9740
-3.8803 5.0277 -1.7017 0.9740
-4.4570 4.5244 -1.7017 0.9740
-0.7879 0.6272 -0.2698 0.9958
-0.8398 0.5168 -0.2642 0.9959
-0.8833 0.4063 -0.2605 0.9960
-0.8658 0.2778 -0.2436 0.9962
-0.9120 0.1753 -0.2488 0.9962
-0.9301 0.0646 -0.2498 0.9961
-0.9299 -0.0477 -0.2495 0.9962
-0.9166 -0.1591 -0.2493 0.9962
-0.8743 -0.2632 -0.2447 0.9962
-0.8852 -0.3879 -0.2590 0.9960
-0.8496 -0.5019 -0.2644 0.9959
-0.7937 -0.6087 -0.2680 0.9959
-4.5381 -4.4430 -1.7017 0.9740
-3.9706 -4.9567 -1.7017 0.9740
-3.3455 -5.3983 -1.7017 0.9740
-2.6718 -5.7616 -1.7017 0.9740
-1.9593 -6.0412 -1.7017 0.9740
-1.2183 -6.2330 -1.7017 0.9740
-0.4596 -6.3343 -1.7017 0.9740
0.3058 -6.3436 -1.7017 0.9740
1.0667 -6.2607 -1.7017 0.9740
1.8121 -6.0869 -1.7017 0.9740
2.5312 -5.8247 -1.7017 0.9740
3.2136 -5.4779 -1.7017 0.9740
3.8492 -5.0515 -1.7017 0.9740
4.4290 -4.5518 -1.7017 0.9740
4.9444 -3.9859 -1.7017 0.9740
5.3880 -3.3622 -1.7017 0.9740
5.7533 -2.6896 -1.7017 0.9740
6.0351 -1.9779 -1.7017 0.9740
6.2292 -1.2375 -1.7017 0.9740
6.3328 -0.4791 -1.7017 0.9740
6.3445 0.2862 -1.7017 0.9740
6.2640 1.0474 -1.7017 0.9740
6.0925 1.7933 -1.7017 0.9740
5.8325 2.5132 -1.7017 0.9740
5.4878 3.1966 -1.7017 0.9740
5.0634 3.8336 -1.7017 0.9740
4.5654 4.4149 -1.7017 0.9740
4.0012 4.9321 -1.7017 0.9740
3.3788 5.3776 -1.7017 0.9740
2.7073 5.7450 -1.7017 0.9740
1.9965 6.0290 -1.7017 0.9740
1.2567 6.2254 -1.7017 0.9740
0.4987 6.3313 -1.7017 0.9740
-0.2666 6.3454 -1.7017 0.9740
-1.0280 6.2672 -1.7017 0.9740
-1.7745 6.0980 -1.7017 0.9740
-2.4952 5.8402 -1.7017 0.9740
-3.1797 5.4976 -1.7017 0.9740
-3.8180 5.0752 -1.7017 0.9740
-4.4008 4.5790 -1.7017 0.9740
-4.9197 4.0164 -1.7017 0.9740
-0.8324 0.5266 -0.2639 0.9959
-0.8813 0.4186 -0.2614 0.9960
-0.8596 0.2876 -0.2429 0.9963
-0.9085 0.1863 -0.2485 0.9962
-0.9298 0.0761 -0.2500 0.9961
-0.9295 -0.0362 -0.2492 0.9962
-0.9194 -0.1479 -0.2495 0.9962
-0.8798 -0.2531 -0.2453 0.9962
-0.8858 -0.3752 -0.2578 0.9960
-0.8557 -0.4914 -0.2644 0.9959
-0.7975 -0.5961 -0.2668 0.9959
-4.5926 -4.3866 -1.7017 0.9740
-4.0315 -4.9073 -1.7017 0.9740
-3.4119 -5.3566 -1.7017 0.9740
-2.7427 -5.7282 -1.7017 0.9740
-2.0337 -6.0165 -1.7017 0.9740
-1.2951 -6.2175 -1.7017 0.9740
-0.5377 -6.3281 -1.7017 0.9740
0.2275 -6.3469 -1.7017 0.9740
0.9893 -6.2734 -1.7017 0.9740
1.7369 -6.1088 -1.7017 0.9740
2.4591 -5.8555 -1.7017 0.9740
3.1457 -5.5172 -1.7017 0.9740
3.7866 -5.0987 -1.7017 0.9740
4.3725 -4.6061 -1.7017 0.9740
4.8948 -4.0466 -1.7017 0.9740
5.3461 -3.4284 -1.7017 0.9740
5.7197 -2.7604 -1.7017 0.9740
6.0102 -2.0522 -1.7017 0.9740
6.2135 -1.3143 -1.7017 0.9740
6.3265 -0.5573 -1.7017 0.9740
6.3475 0.2079 -1.7017 0.9740
6.2764 0.9700 -1.7017 0.9740
6.1142 1.7180 -1.7017 0.9740
5.8631 2.4410 -1.7017 0.9740
5.5268 3.1287 -1.7017 0.9740
5.1103 3.7708 -1.7017 0.9740
4.6196 4.3582 -1.7017 0.9740
4.0617 4.8823 -1.7017 0.9740
3.4449 5.3355 -1.7017 0.9740
2.7780 5.7112 -1.7017 0.9740
2.0708 6.0039 -1.7017 0.9740
1.3335 6.2094 -1.7017 0.9740
0.5768 6.3247 -1.7017 0.9740
-0.1883 6.3482 -1.7017 0.9740
-0.9506 6.2794 -1.7017 0.9740
-1.6991 6.1194 -1.7017 0.9740
-2.4229 5.8706 -1.7017 0.9740
-3.1116 5.5365 -1.7017 0.9740
-3.7550 5.1219 -1.7017 0.9740
-4.3439 4.6330 -1.7017 0.9740
-4.8698 4.0768 -1.7017 0.9740
-0.8245 0.5360 -0.2635 0.9959
-0.8787 0.4308 -0.2622 0.9960
-0.8638 0.3009 -0.2451 0.9962
-0.9046 0.1972 -0.2481 0.9962
-0.9291 0.0876 -0.2501 0.9961
-0.9287 -0.0247 -0.2489 0.9962
-0.9219 -0.1366 -0.2497 0.9961
-0.8851 -0.2428 -0.2459 0.9962
-0.8859 -0.3625 -0.2565 0.9960
-0.8612 -0.4805 -0.2643 0.9959
-0.8012 -0.5835 -0.2656 0.9959
-4.6464 -4.3296 -1.7017 0.9740
-4.0918 -4.8571 -1.7017 0.9740
-3.4777 -5.3141 -1.7017 0.9740
-2.8132 -5.6939 -1.7017 0.9740
-2.1078 -5.9910 -1.7017 0.9740
-1.3718 -6.2010 -1.7017 0.9740
-0.6158 -6.3210 -1.7017 0.9740
0.1491 -6.3492 -1.7017 0.9740
0.9118 -6.2852 -1.7017 0.9740
1.6613 -6.1298 -1.7017 0.9740
2.3867 -5.8854 -1.7017 0.9740
3.0774 -5.5556 -1.7017 0.9740
3.7234 -5.1450 -1.7017 0.9740
4.3153 -4.6597 -1.7017 0.9740
4.8445 -4.1068 -1.7017 0.9740
5.3034 -3.4941 -1.7017 0.9740
5.6852 -2.8308 -1.7017 0.9740
5.9844 -2.1263 -1.7017 0.9740
6.1968 -1.3909 -1.7017 0.9740
6.3191 -0.6353 -1.7017 0.9740
6.3496 0.1295 -1.7017 0.9740
6.2879 0.8924 -1.7017 0.9740
6.1349 1.6424 -1.7017 0.9740
5.8928 2.3685 -1.7017 0.9740
5.5650 3.0602 -1.7017 0.9740
5.1565 3.7075 -1.7017 0.9740
4.6730 4.3009 -1.7017 0.9740
4.1217 4.8318 -1.7017 0.9740
3.5105 5.2925 -1.7017 0.9740
2.8483 5.6764 -1.7017 0.9740
2.1447 5.9778 -1.7017 0.9740
1.4100 6.1925 -1.7017 0.9740
0.6548 6.3171 -1.7017 0.9740
-0.1099 6.3500 -1.7017 0.9740
-0.8730 6.2907 -1.7017 0.9740
-1.6235 6.1399 -1.7017 0.9740
-2.3503 5.9001 -1.7017 0.9740
-3.0430 5.5745 -1.7017 0.9740
-3.6915 5.1679 -1.7017 0.9740
-4.2864 4.6863 -1.7017 0.9740
-4.8191 4.1366 -1.7017 0.9740
-0.8161 0.5450 -0.2630 0.9959
-0.8756 0.4427 -0.2629 0.9959
-0.8701 0.3152 -0.2480 0.9962
-0.9006 0.2080 -0.2477 0.9962
-0.9279 0.0991 -0.2500 0.9961
-0.9276 -0.0132 -0.2486 0.9962
-0.9240 -0.1253 -0.2499 0.9961
-0.8901 -0.2324 -0.2465 0.9962
-0.8836 -0.3488 -0.2546 0.9961
-0.8662 -0.4694 -0.2640 0.9959
-0.8046 -0.5710 -0.2644 0.9959
-4.6995 -4.2719 -1.7017 0.9740
-4.1514 -4.8063 -1.7017 0.9740
-3.5431 -5.2708 -1.7017 0.9740
-2.8833 -5.6587 -1.7017 0.9740
-2.1816 -5.9645 -1.7017 0.9740
-1.4482 -6.1836 -1.7017 0.9740
-0.6938 -6.3129 -1.7017 0.9740
0.0707 -6.3506 -1.7017 0.9740
0.8342 -6.2959 -1.7017 0.9740
1.5855 -6.1499 -1.7017 0.9740
2.3139 -5.9144 -1.7017 0.9740
3.0086 -5.5931 -1.7017 0.9740
3.6596 -5.1906 -1.7017 0.9740
4.2574 -4.7126 -1.7017 0.9740
4.7934 -4.1662 -1.7017 0.9740
5.2598 -3.5593 -1.7017 0.9740
5.6498 -2.9007 -1.7017 0.9740
5.9577 -2.2000 -1.7017 0.9740
6.1791 -1.4673 -1.7017 0.9740
6.3108 -0.7132 -1.7017 0.9740
6.3507 0.0511 -1.7017 0.9740
6.2985 0.8147 -1.7017 0.9740
6.1547 1.5665 -1.7017 0.9740
5.9216 2.2956 -1.7017 0.9740
5.6024 2.9913 -1.7017 0.9740
5.2019 3.6435 -1.7017 0.9740
4.7257 4.2429 -1.7017 0.9740
4.1810 4.7806 -1.7017 0.9740
3.5755 5.2488 -1.7017 0.9740
2.9181 5.6408 -1.7017 0.9740
2.2183 5.9509 -1.7017 0.9740
1.4863 6.1746 -1.7017 0.9740
0.7327 6.3085 -1.7017 0.9740
-0.0315 6.3509 -1.7017 0.9740
-0.7953 6.3010 -1.7017 0.9740
-1.5475 6.1595 -1.7017 0.9740
-2.2773 5.9286 -1.7017 0.9740
