ply
format ascii 1.0
element vertex 1538
property float32 x
property float32 y
property float32 z
property float32 I
end_header
-29.7343 -50.6890 13.5673 0.7856
-31.0139 -71.3754 17.9667 0.7265
-4.6484 -15.6169 3.7618 0.9353
-2.7858 -16.3566 3.8306 0.9342
-0.8067 -16.7614 3.8742 0.9334
14.8549 -45.7863 11.1130 0.8207
14.6549 -31.5926 8.0402 0.8668
14.7159 -23.7386 6.4481 0.8917
15.3431 -19.1475 5.6647 0.9042
15.9884 -15.6484 5.1650 0.9122
16.3670 -12.5471 4.7612 0.9188
17.6779 -10.4397 4.7398 0.9192
24.9152 -10.9131 6.2797 0.8943
52.6151 16.9003 12.7584 0.7970
31.6285 14.5592 8.0385 0.8668
21.2583 13.0924 5.7640 0.9026
18.9770 15.1154 5.6011 0.9052
17.0639 17.3329 5.6154 0.9050
15.6859 20.3378 5.9296 0.8999
17.2984 29.0971 7.8151 0.8703
4.6960 86.9598 20.1055 0.6994
-2.5608 13.5148 3.1756 0.9451
-27.6977 87.1059 21.1021 0.6871
-37.7388 82.6209 20.9702 0.6887
-19.7763 32.3229 8.7483 0.8559
-12.0084 15.1673 4.4663 0.9237
-15.6538 15.5015 5.0861 0.9135
-20.7099 16.0698 6.0518 0.8980
-23.5046 14.0669 6.3240 0.8936
-30.7115 13.6667 7.7607 0.8711
-45.9451 14.1162 11.0966 0.8209
-74.1023 -23.3241 17.9353 0.7269
-51.6243 -23.3980 13.0854 0.7924
-27.9521 -16.9898 7.5518 0.8743
-23.9819 -18.8733 7.0456 0.8822
-29.6362 -29.7526 9.6952 0.8416
-29.4829 -37.7669 11.0614 0.8214
-29.6794 -49.2635 13.2780 0.7897
-31.9233 -71.1748 18.0091 0.7260
-4.8690 -15.6837 3.7913 0.9348
-2.9866 -16.3741 3.8426 0.9340
-0.9845 -16.4414 3.8026 0.9346
14.9881 -48.1095 11.6335 0.8131
15.0247 -33.4095 8.4573 0.8604
14.6516 -24.2651 6.5441 0.8902
14.9382 -19.0964 5.5974 0.9053
15.7636 -15.7941 5.1517 0.9125
16.2667 -12.7754 4.7752 0.9186
17.4275 -10.5691 4.7055 0.9197
24.9764 -11.2904 6.3280 0.8936
29.4303 -9.2312 7.1209 0.8811
59.5255 18.3534 14.3809 0.7744
18.4550 8.2345 4.6655 0.9204
21.8530 13.1079 5.8831 0.9007
19.2016 14.9300 5.6154 0.9050
17.2659 17.1317 5.6154 0.9050
15.6845 19.8508 5.8408 0.9014
17.6003 28.8306 7.7983 0.8705
5.7584 87.5692 20.2606 0.6975
-5.3225 96.7765 22.3764 0.6717
-15.6182 88.0535 20.6461 0.6927
-25.7837 84.5018 20.3967 0.6958
-36.9310 83.4243 21.0628 0.6876
-19.8583 33.3277 8.9566 0.8528
-11.7320 15.1802 4.4293 0.9243
-20.6962 20.9808 6.8039 0.8860
-20.7088 16.4613 6.1074 0.8971
-22.8887 14.0652 6.2022 0.8956
-30.6650 14.0788 7.7901 0.8706
-44.0816 14.1111 10.6857 0.8270
-74.9813 -22.6390 18.0826 0.7250
-53.2595 -23.3911 13.4295 0.7876
-39.6691 -23.4797 10.6423 0.8276
-23.9806 -18.4216 6.9813 0.8833
-23.9948 -23.5312 7.7589 0.8711
-29.6968 -37.1358 10.9777 0.8227
-29.9188 -48.3698 13.1306 0.7918
-32.9151 -71.1423 18.0972 0.7248
-5.1155 -15.8206 3.8387 0.9340
-3.2136 -16.5199 3.8854 0.9332
-1.1705 -16.3378 3.7815 0.9350
16.2959 -54.5502 13.1438 0.7916
14.8496 -34.0822 8.5829 0.8585
14.7247 -25.0446 6.7073 0.8876
14.8901 -19.5015 5.6646 0.9042
18.4504 -18.9245 6.1019 0.8972
16.3871 -13.1834 4.8556 0.9173
17.3211 -10.7840 4.7106 0.9197
20.8755 -9.7326 5.3175 0.9098
29.0861 -9.4989 7.0641 0.8820
59.5234 17.5919 14.3297 0.7751
31.6260 13.6694 7.9543 0.8681
22.4722 13.1239 6.0081 0.8987
19.3752 14.7041 5.6154 0.9050
17.4653 16.9283 5.6154 0.9050
15.6480 19.3344 5.7424 0.9029
17.7438 28.3143 7.7144 0.8718
6.8440 88.2685 20.4395 0.6953
-4.0648 93.9813 21.7176 0.6797
-14.6485 88.6098 20.7348 0.6916
-24.5239 83.8805 20.1761 0.6985
-31.2755 72.9455 18.3234 0.7219
-20.7313 35.7383 9.5386 0.8440
-11.4603 15.1931 4.3936 0.9248
-20.6949 21.4768 6.8856 0.8848
-20.7077 16.8600 6.1649 0.8962
-22.3838 14.1187 6.1098 0.8971
-29.7358 14.0762 7.5954 0.8737
-42.4258 14.1310 10.3238 0.8323
-55.1088 -23.4369 13.8257 0.7820
-40.7458 -23.4767 10.8566 0.8244
-23.6553 -17.7348 6.8256 0.8857
-23.9933 -22.9844 7.6708 0.8725
-24.0109 -29.3147 8.7483 0.8559
-30.7161 -48.3828 13.2309 0.7904
-29.7851 -62.4471 15.9730 0.7527
-5.4308 -16.1472 3.9331 0.9325
-3.4002 -16.4490 3.8778 0.9334
-1.3817 -16.5619 3.8369 0.9340
0.7581 -20.2774 4.6847 0.9201
4.9739 -17.3902 4.1758 0.9284
14.7959 -35.0754 8.7888 0.8553
14.8541 -25.9559 6.9043 0.8845
14.8888 -19.9807 5.7528 0.9028
18.1414 -19.0490 6.0731 0.8976
15.8875 -13.0909 4.7526 0.9190
17.0059 -10.8664 4.6592 0.9205
20.4915 -9.8475 5.2488 0.9109
59.5587 16.8461 14.2896 0.7756
31.6248 13.2313 7.9144 0.8687
23.0863 13.1222 6.1307 0.8967
19.5461 14.4760 5.6154 0.9050
17.5758 16.6404 5.5878 0.9054
15.6486 18.8784 5.6611 0.9042
15.6971 24.4079 6.6997 0.8877
18.7641 88.1630 20.8099 0.6907
6.2950 70.4644 16.3328 0.7479
-2.8947 91.8452 21.2147 0.6858
-13.6791 89.2319 20.8415 0.6903
-23.6072 84.4064 20.2346 0.6978
-36.7462 88.5574 22.1353 0.6746
-20.6579 36.5934 9.7015 0.8416
-11.1930 15.2063 4.3592 0.9254
-14.1834 15.0689 4.7776 0.9186
-20.7066 17.2666 6.2244 0.8952
-21.8108 14.1171 5.9981 0.8988
-28.5386 13.9210 7.3307 0.8778
-38.1372 13.2008 9.3172 0.8473
-25.4574 5.4960 6.0127 0.8986
-56.9396 -23.4318 14.2151 0.7766
-30.2647 -16.9687 8.0105 0.8672
-23.6014 -17.2664 6.7513 0.8869
-23.9662 -22.4261 7.5777 0.8739
-24.0090 -28.6217 8.6248 0.8578
-31.5161 -48.3805 13.3304 0.7890
-29.7617 -60.5615 15.5788 0.7580
-5.5903 -15.9984 3.9125 0.9328
-3.6671 -16.7477 3.9581 0.9320
-1.6105 -16.9096 3.9215 0.9326
0.5189 -20.2234 4.6705 0.9203
-3.7156 93.3726 18.1642 0.6833
-14.5631 90.0254 17.7267 0.6896
-24.3133 84.2401 17.0430 0.6996
-30.6626 72.2040 15.2481 0.7264
-20.6285 35.8459 8.0391 0.8449
-20.8138 27.7924 6.7493 0.8681
-20.6945 21.6254 5.8182 0.8852
-20.7074 16.9790 5.2052 0.8966
-21.8330 13.8770 5.0286 0.8999
-29.8572 14.2601 6.4316 0.8739
-39.4594 13.2946 8.0938 0.8439
-40.3289 -16.9871 8.5062 0.8367
-29.1969 -16.6885 6.5370 0.8719
-23.6549 -17.6073 5.7320 0.8868
-23.6034 -22.4552 6.3326 0.8757
-23.2867 -28.2311 7.1135 0.8615
-24.0339 -37.5696 8.6692 0.8338
-29.7141 -61.7484 13.3201 0.7564
-31.5107 -92.6290 19.0186 0.6712
-3.4871 -16.5800 3.2933 0.9333
-2.8057 -32.2833 6.2989 0.8763
1.9662 -57.9537 11.2715 0.7896
16.5933 -58.7824 11.8727 0.7797
7.1441 -17.1007 3.6025 0.9273
14.8433 -26.1461 5.8442 0.8847
14.8883 -20.1249 4.8660 0.9030
16.9088 -17.8779 4.7832 0.9046
15.7269 -13.0501 3.9724 0.9201
18.3709 -11.8281 4.2471 0.9148
20.9944 -10.1786 4.5352 0.9093
27.6298 -9.4895 5.6786 0.8878
60.3454 16.8439 12.1783 0.7747
31.5420 13.0689 6.6366 0.8701
24.5378 13.8354 5.4756 0.8916
20.6140 15.1569 4.9735 0.9010
17.6716 16.6158 4.7150 0.9059
17.7342 21.2449 5.3793 0.8934
15.7073 24.2396 5.6145 0.8890
17.7529 36.3455 7.8626 0.8480
18.7201 86.4900 17.2013 0.6973
6.5326 70.3838 13.7400 0.7497
-2.5819 91.9991 17.8899 0.6873
-13.5683 90.5961 17.8065 0.6885
-23.4391 84.9337 17.1266 0.6984
-30.3376 73.8312 15.5157 0.7223
-20.5279 36.6578 8.1667 0.8427
-20.6809 28.3000 6.8133 0.8669
-20.6930 22.1373 5.8903 0.8838
-20.8814 17.5348 5.3002 0.8948
-21.3366 13.9150 4.9515 0.9014
-28.6154 14.0811 6.1992 0.8781
-25.4530 8.9089 5.2419 0.8959
-41.5732 -16.9405 8.7262 0.8328
-29.8374 -16.5939 6.6364 0.8701
-23.5494 -17.1037 5.6575 0.8882
-23.8278 -22.1427 6.3228 0.8759
-23.4389 -27.7470 7.0603 0.8624
-24.0814 -36.6898 8.5307 0.8362
-29.5575 -59.6249 12.9358 0.7625
-29.8280 -84.4254 17.4047 0.6943
-3.6995 -16.6207 3.3098 0.9330
-3.2172 -32.5883 6.3653 0.8751
0.7938 -35.7497 6.9508 0.8644
16.2750 -60.3501 12.1500 0.7751
6.9174 -17.1191 3.5890 0.9275
14.6391 -26.5048 5.8856 0.8839
14.9989 -20.7791 4.9814 0.9008
17.6952 -19.1540 5.0688 0.8992
15.9925 -13.5900 4.0794 0.9180
18.2171 -12.0333 4.2438 0.9149
24.2904 -12.1301 5.2776 0.8953
26.3083 -9.3816 5.4292 0.8924
63.2964 16.8708 12.7331 0.7657
32.6101 13.0659 6.8286 0.8666
24.5368 13.4584 5.4398 0.8922
21.1261 15.1555 5.0539 0.8995
17.7204 16.2749 4.6768 0.9066
17.7328 20.7444 5.3048 0.8948
15.9902 24.0539 5.6145 0.8890
17.7499 35.2851 7.6777 0.8513
19.8487 86.7745 17.3029 0.6958
7.4220 70.9266 13.8620 0.7478
-1.4618 89.4436 17.3884 0.6945
-12.5643 91.1720 17.8896 0.6873
-22.5119 85.4655 17.1795 0.6976
-28.7415 72.3459 15.1317 0.7282
-20.6542 37.9187 8.3931 0.8387
-20.6598 28.9776 6.9177 0.8650
-20.8226 22.8057 6.0028 0.8818
-20.8803 17.9551 5.3530 0.8939
-20.9162 13.9928 4.8916 0.9025
-27.7842 14.0787 6.0545 0.8808
-36.5799 13.2866 7.5649 0.8533
-59.4407 -23.4131 12.4181 0.7708
-30.7765 -16.6472 6.8014 0.8671
-23.5482 -16.6850 5.6098 0.8891
-24.0912 -21.8672 6.3243 0.8758
-23.7624 -27.4704 7.0603 0.8624
-24.1408 -35.8573 8.4024 0.8385
-29.7554 -58.2979 12.7227 0.7659
-6.3121 -17.2210 3.5652 0.9280
-3.9022 -16.6115 3.3168 0.9328
-3.5107 -31.7519 6.2096 0.8779
0.3631 -34.6265 6.7311 0.8684
16.4663 -64.0346 12.8520 0.7638
15.0006 -38.4129 8.0158 0.8453
14.8674 -27.6796 6.1074 0.8798
14.8855 -21.1396 5.0256 0.9000
17.2827 -19.1529 5.0146 0.9002
15.5039 -13.4906 3.9948 0.9197
16.6802 -11.3010 3.9164 0.9212
22.9034 -11.7747 5.0058 0.9004
26.8059 -9.9145 5.5555 0.8901
68.7174 17.4561 13.7815 0.7491
39.0786 15.1289 8.1455 0.8430
24.5357 13.0863 5.4052 0.8929
21.6553 15.1541 5.1377 0.8979
17.7194 15.8953 4.6271 0.9076
17.7315 20.2574 5.2330 0.8961
15.6581 22.9661 5.4030 0.8929
15.6733 30.2683 6.6256 0.8703
27.4502 73.5545 15.2607 0.7262
22.1651 91.9340 18.3822 0.6802
8.1685 70.1152 13.7212 0.7500
-0.4054 87.6022 17.0283 0.6998
-11.5487 91.7356 17.9723 0.6861
-21.5787 86.0009 17.2351 0.6968
-31.0777 80.9787 16.8601 0.7023
-20.6442 38.9806 8.5741 0.8355
-20.6695 29.7219 7.0370 0.8628
-20.7449 23.2622 6.0586 0.8807
-20.7458 18.2665 5.3730 0.8935
-20.6483 14.1665 4.8674 0.9030
-27.0969 14.1318 5.9404 0.8829
-35.3988 13.3289 7.3525 0.8572
-95.7679 -11.7715 18.7555 0.6749
-74.3205 -28.2729 15.4565 0.7232
-32.1479 -16.9053 7.0603 0.8624
-23.9601 -16.5587 5.6614 0.8881
-24.0898 -21.3566 6.2578 0.8771
-24.0048 -27.1024 7.0374 0.8628
-24.0262 -34.8002 8.2200 0.8417
-29.9449 -57.0097 12.5173 0.7692
-29.7933 -78.4272 16.3076 0.7104
-4.1159 -16.6430 3.3325 0.9325
-2.2696 -18.5356 3.6299 0.9267
-0.0421 -34.1856 6.6450 0.8700
16.4441 -67.2020 13.4481 0.7543
14.8350 -39.3426 8.1730 0.8425
14.8652 -28.4705 6.2430 0.8773
14.8841 -21.6723 5.1105 0.8984
16.8789 -19.1517 4.9622 0.9012
15.6253 -13.9213 4.0679 0.9183
16.6635 -11.5768 3.9440 0.9206
20.4049 -10.7943 4.4871 0.9102
27.4427 -10.5171 5.7126 0.8871
70.7829 -17.7251 14.1836 0.7428
67.4181 16.2878 13.4818 0.7538
45.2753 16.9207 9.3951 0.8212
25.2340 13.0814 5.5249 0.8906
21.9916 15.0087 5.1754 0.8972
17.7183 15.5236 4.5790 0.9085
17.7301 19.7834 5.1639 0.8974
15.6565 22.3956 5.3116 0.8946
15.6709 29.4148 6.4785 0.8730
27.3467 70.7361 14.7415 0.7342
23.3105 91.9436 18.4374 0.6794
11.7154 91.2466 17.8821 0.6874
0.6085 85.8348 16.6850 0.7048
-10.4814 91.9361 17.9863 0.6859
-20.6394 86.5397 17.2934 0.6959
-30.1840 81.4915 16.8920 0.7018
-20.7027 40.2234 8.7935 0.8317
-10.5118 15.4998 3.6404 0.9265
-20.6885 23.7534 6.1230 0.8795
-20.7027 18.6636 5.4181 0.8926
-20.6473 14.5245 4.9070 0.9022
-26.2327 14.0744 5.7867 0.8858
-35.1020 13.6888 7.3236 0.8577
-66.9354 17.1790 13.4326 0.7546
-73.6090 -27.0196 15.2416 0.7265
-32.3438 -16.5275 7.0603 0.8624
-24.7220 -16.6607 5.7949 0.8856
-24.0884 -20.8565 6.1935 0.8782
-24.0030 -26.4690 6.9455 0.8645
-24.1940 -34.1798 8.1400 0.8431
-29.8388 -55.2262 12.2016 0.7743
-29.6009 -75.2531 15.7187 0.7193
-4.5051 -17.3427 3.4830 0.9296
-2.4729 -18.4061 3.6099 0.9271
-0.4338 -33.5112 6.5145 0.8723
16.2483 -69.9413 13.9573 0.7463
14.8310 -40.7727 8.4334 0.8380
14.8629 -29.2977 6.3858 0.8747
14.8825 -22.2236 5.1990 0.8967
16.6499 -19.3442 4.9612 0.9012
15.5509 -14.1853 4.0915 0.9178
16.4528 -11.7185 3.9264 0.9210
19.3061 -10.5043 4.2722 0.9143
26.0960 -10.3532 5.4572 0.8919
67.3851 -17.7157 13.5434 0.7528
67.4158 15.4536 13.4442 0.7544
46.9325 16.9161 9.6972 0.8160
26.2684 13.2295 5.7171 0.8871
22.7684 15.1510 5.3160 0.8945
17.7236 15.1650 4.5341 0.9093
17.6306 19.2145 5.0689 0.8992
15.7202 21.9349 5.2456 0.8959
15.7089 28.6715 6.3548 0.8753
28.2910 70.7044 14.8029 0.7332
24.4562 91.9276 18.4904 0.6787
12.9111 92.0122 18.0606 0.6848
1.6020 85.1849 16.5612 0.7067
-9.5486 93.4721 18.2637 0.6819
-19.6934 87.0824 17.3546 0.6950
-29.2867 82.0061 16.9264 0.7013
-20.6448 41.2930 8.9738 0.8285
-10.2518 15.5045 3.6130 0.9271
-20.6919 24.3271 6.2079 0.8780
-20.6224 19.0340 5.4551 0.8919
-20.5777 14.8390 4.9314 0.9018
-25.5069 14.0724 5.6626 0.8881
-34.4719 13.9106 7.2257 0.8594
-66.7949 17.9794 13.4457 0.7544
-97.8214 2.1261 19.0191 0.6712
-73.7727 -26.1030 15.2111 0.7270
-32.7297 -16.2440 7.1025 0.8617
-25.9986 -17.0816 6.0468 0.8809
-24.0870 -20.3665 6.1314 0.8794
-24.1026 -25.9610 6.8859 0.8656
-35.1205 -48.4033 11.6244 0.7837
-29.7422 -53.5379 11.9048 0.7791
-29.7969 -73.2211 15.3661 0.7246
-4.4302 -16.2683 3.2774 0.9336
-2.4599 -16.8142 3.3031 0.9331
-0.8491 -34.4226 6.6931 0.8691
16.4367 -74.7132 14.8701 0.7322
14.6267 -41.7269 8.5948 0.8351
14.6676 -29.7723 6.4513 0.8735
14.8303 -22.7167 5.2734 0.8953
16.2585 -19.3431 4.9117 0.9022
15.3727 -14.3562 4.0886 0.9179
16.7074 -12.1974 4.0210 0.9192
19.8031 -11.0773 4.4106 0.9117
26.1648 -10.7369 5.4975 0.8911
64.3352 -17.7223 12.9713 0.7619
67.4135 14.6240 13.4086 0.7550
54.1024 18.7871 11.1325 0.7919
26.3838 12.9023 5.7089 0.8872
23.3547 15.1493 5.4111 0.8928
18.1485 15.1638 4.5970 0.9081
17.7276 18.8717 5.0329 0.8999
16.1116 21.9338 5.2901 0.8950
15.7067 27.8872 6.2214 0.8777
28.8647 69.7579 14.6745 0.7352
25.6119 91.9244 18.5489 0.6778
14.0607 92.3319 18.1544 0.6835
2.6183 85.7679 16.6793 0.7049
-8.4596 93.6503 18.2779 0.6817
-18.7409 87.6288 17.4185 0.6941
-28.3858 82.5229 16.9633 0.7007
-20.7721 42.7936 9.2464 0.8238
-20.6187 31.9912 7.3981 0.8563
-20.7451 24.9766 6.3112 0.8761
-20.7002 19.5598 5.5359 0.8904
-20.5576 15.1936 4.9689 0.9011
-24.9225 14.1333 5.5692 0.8898
-33.6485 14.0389 7.0871 0.8619
-50.1378 14.1279 10.1253 0.8088
-95.3484 3.1901 18.5442 0.6779
-97.2192 -8.4951 18.9695 0.6719
-78.0338 -26.5865 16.0244 0.7147
-35.1435 -16.9318 7.5827 0.8530
-26.6714 -17.0797 6.1563 0.8789
-24.0857 -19.8863 6.0713 0.8805
-24.1009 -25.3570 6.8001 0.8671
-24.0192 -32.3007 7.8243 0.8487
-29.5356 -51.7292 11.5787 0.7845
-30.0051 -71.3282 15.0416 0.7296
-4.9383 -17.3307 3.5028 0.9292
-3.1113 -19.6563 3.8684 0.9221
-1.2331 -33.8839 6.5907 0.8710
14.8222 -43.9260 9.0113 0.8279
14.6282 -30.5911 6.5912 0.8709
14.8286 -23.3063 5.3695 0.8935
15.7009 -19.1304 4.8106 0.9041
15.4721 -14.7922 4.1608 0.9165
16.7848 -12.5578 4.0747 0.9181
19.3809 -11.1412 4.3454 0.9129
26.2476 -11.1319 5.5419 0.8903
61.3130 -17.6650 12.4028 0.7710
67.7929 13.8769 13.4509 0.7543
56.5145 18.8859 11.5825 0.7844
27.6338 13.1147 5.9457 0.8828
23.9623 15.1477 5.5104 0.8909
18.5852 15.1626 4.6624 0.9069
17.7264 18.4328 4.9709 0.9010
16.5099 21.9327 5.3362 0.8942
15.7046 27.1349 6.0942 0.8801
30.1010 70.3991 14.8826 0.7320
26.7756 91.9212 18.6103 0.6770
3.6496 86.3595 16.8016 0.7031
-7.4024 94.2568 18.3781 0.6803
-17.7811 88.1794 17.4854 0.6931
-27.4809 83.0421 17.0027 0.7002
-20.6378 43.8160 9.4144 0.8209
-20.2426 32.2305 7.3981 0.8563
-20.7434 25.5783 6.4014 0.8744
-20.8740 20.1920 5.6452 0.8884
-20.5368 15.5535 5.0076 0.9003
-24.3717 14.2008 5.4829 0.8914
-32.6937 14.0924 6.9203 0.8650
-47.9573 14.1218 9.7177 0.8157
-36.2731 -16.9553 7.7830 0.8495
-27.3693 -17.0778 6.2708 0.8768
-24.0844 -19.4151 6.0132 0.8816
-24.0993 -24.7677 6.7173 0.8686
-24.0171 -31.5199 7.7027 0.8509
-29.7343 -50.6890 11.4230 0.7870
-31.1069 -71.5895 15.1725 0.7276
-5.0397 -16.9317 3.4339 0.9305
-3.0876 -18.1289 3.5746 0.9278
-1.6284 -33.8358 6.5846 0.8711
14.8174 -45.6707 9.3330 0.8223
14.5620 -31.3923 6.7266 0.8685
14.8776 -23.9994 5.4887 0.8913
15.3431 -19.1475 4.7694 0.9049
15.4689 -15.1400 4.2074 0.9156
16.1437 -12.3759 3.9540 0.9205
18.4172 -10.8763 4.1576 0.9165
26.0509 -11.4105 5.5282 0.8906
61.3432 -18.4548 12.4518 0.7703
71.7503 13.8133 14.2030 0.7425
57.9234 18.6054 11.8257 0.7804
28.4855 13.1124 6.0955 0.8800
24.4236 15.0418 5.5756 0.8897
19.0346 15.1613 4.7302 0.9056
17.7252 18.0046 4.9111 0.9022
16.9152 21.9316 5.3837 0.8933
15.7026 26.4129 5.9729 0.8823
31.1659 70.5906 14.9992 0.7302
27.8571 91.6231 18.6147 0.6769
16.5346 93.7604 18.5064 0.6784
4.6960 86.9598 16.9279 0.7013
-6.3328 94.8671 18.4813 0.6788
-2.5205 13.3022 2.6317 0.9463
-26.9980 84.9058 17.3183 0.6956
-31.6806 69.3578 14.8216 0.7329
-19.8635 32.4655 7.3981 0.8563
-20.6869 26.1286 6.4780 0.8730
-15.6471 15.4949 4.2804 0.9142
-20.5154 15.9189 5.0475 0.8996
-23.5046 14.0669 5.3245 0.8944
-31.7859 14.1448 6.7627 0.8678
-45.6851 14.0363 9.2899 0.8230
-95.0558 5.4123 18.5069 0.6784
-77.4636 -24.3821 15.7857 0.7183
-37.6133 -17.0478 8.0272 0.8451
-28.0935 -17.0758 6.3904 0.8746
-24.0831 -18.9530 5.9571 0.8826
-23.6721 -23.7651 6.5201 0.8722
-23.9893 -30.7298 7.5779 0.8531
-29.4984 -48.9630 11.1112 0.7922
-32.0121 -71.3726 15.2050 0.7271
-5.0088 -16.1337 3.2837 0.9335
-3.1358 -17.1923 3.3970 0.9313
-2.0250 -33.8176 6.5853 0.8711
3.3543 -55.1041 10.7310 0.7986
9.1801 -29.4667 5.9993 0.8818
15.0369 -33.4367 7.1264 0.8612
14.8758 -24.6363 5.5941 0.8893
14.9382 -19.0964 4.7128 0.9059
16.2366 -16.2680 4.4677 0.9106
15.9203 -12.5034 3.9349 0.9208
18.1156 -10.9864 4.1183 0.9173
26.1197 -11.8072 5.5718 0.8898
27.1405 -8.5130 5.5290 0.8906
62.0098 -11.4981 12.2589 0.7734
58.1374 17.9254 11.8257 0.7804
18.4534 8.2338 3.9279 0.9210
24.5403 14.7198 5.5625 0.8899
19.3124 15.0161 4.7552 0.9051
17.7240 17.5864 4.8534 0.9033
17.3277 21.9305 5.4329 0.8924
15.7007 25.7190 5.8572 0.8845
29.1262 91.9146 18.7420 0.6751
16.7292 88.7710 17.5591 0.6920
4.6603 70.8703 13.8056 0.7487
-5.2502 95.4633 18.5842 0.6773
-15.8383 89.2939 17.6279 0.6911
-25.7951 84.5392 17.1807 0.6976
-31.3070 70.7202 15.0334 0.7297
-19.8583 33.3277 7.5411 0.8538
-20.6852 26.7647 6.5752 0.8712
-20.6962 20.9808 5.7285 0.8868
-20.7088 16.4613 5.1422 0.8978
-22.8887 14.0652 5.2220 0.8963
-30.6824 14.0868 6.5626 0.8715
-44.6350 14.2882 9.1099 0.8262
-95.3375 6.5499 18.5754 0.6775
-38.5910 -16.9488 8.1929 0.8422
-28.8460 -17.0737 6.5157 0.8723
-24.0818 -18.4993 5.9028 0.8836
-23.6178 -23.1616 6.4300 0.8739
-24.1458 -30.1943 7.5151 0.8542
-29.8341 -48.2330 11.0241 0.7937
-33.0203 -71.3698 15.2857 0.7258
-5.5778 -17.2505 3.5241 0.9288
-3.2459 -16.6861 3.3042 0.9331
-2.4890 -34.7411 6.7703 0.8677
2.7271 -55.5154 10.8041 0.7973
14.6490 -49.0373 9.9481 0.8118
7.4533 -17.1064 3.6271 0.9268
14.8740 -25.2986 5.7045 0.8873
14.8901 -19.5015 4.7693 0.9049
16.0748 -16.4879 4.4760 0.9104
15.7535 -12.6737 3.9301 0.9209
18.9051 -11.7703 4.3288 0.9132
21.5831 -10.0626 4.6289 0.9075
27.1484 -8.8661 5.5514 0.8901
58.3434 17.2432 11.8257 0.7804
30.3255 13.1073 6.4217 0.8740
24.5392 14.3310 5.5238 0.8907
19.9743 15.1587 4.8741 0.9029
17.7229 17.1780 4.7976 0.9043
17.6540 21.8131 5.4547 0.8919
15.4820 24.7050 5.6672 0.8880
30.3518 92.0236 18.8354 0.6738
17.4638 87.0514 17.2582 0.6964
5.4174 69.8697 13.6221 0.7516
-4.0648 93.9813 18.2852 0.6816
-14.8549 89.8580 17.7037 0.6900
-24.6317 84.2495 17.0620 0.6993
-31.0174 72.3437 15.3002 0.7256
-20.6293 35.5625 7.9915 0.8458
-20.8583 27.6522 6.7327 0.8684
-20.6949 21.4768 5.7974 0.8856
-20.7077 16.8600 5.1906 0.8969
-21.9823 13.8655 5.0519 0.8995
-29.9225 14.1646 6.4351 0.8738
-39.9184 13.2958 8.1784 0.8424
-39.9260 -16.9799 8.4335 0.8380
-29.1973 -16.8227 6.5500 0.8717
-23.6553 -17.7348 5.7469 0.8865
-23.6039 -22.6114 6.3536 0.8753
-23.2873 -28.4312 7.1437 0.8609
-24.0347 -37.8585 8.7167 0.8330
-29.7157 -62.3016 13.4172 0.7548
-31.1543 -92.6300 18.9965 0.6715
-3.4243 -16.5656 3.2881 0.9334
-2.8339 -33.9677 6.6256 0.8703
2.1681 -57.9911 11.2802 0.7894
16.4841 -57.6334 11.6520 0.7833
7.2126 -17.0982 3.6072 0.9272
14.8721 -25.9873 5.8201 0.8851
14.8838 -19.9741 4.8420 0.9035
16.8823 -17.7269 4.7584 0.9051
15.7202 -12.9531 3.9594 0.9203
18.4797 -11.8081 4.2628 0.9145
24.3149 -11.6850 5.2438 0.8959
27.6358 -9.3850 5.6732 0.8879
58.9253 16.6669 11.9033 0.7792
31.2769 13.0857 6.5903 0.8710
24.5381 13.9474 5.4864 0.8914
20.4661 15.1574 4.9504 0.9014
17.5758 16.6404 4.7047 0.9061
17.7346 21.3951 5.4018 0.8929
15.6236 24.2937 5.6145 0.8890
17.7538 36.6675 7.9190 0.8470
31.4913 91.8463 18.8734 0.6732
18.4271 86.5797 17.2063 0.6972
6.2767 70.2601 13.7116 0.7502
-2.9130 92.4269 17.9749 0.6860
-13.8621 90.4275 17.7827 0.6888
-23.7110 84.7777 17.1115 0.6986
-29.6772 71.5213 15.0517 0.7294
-20.6266 36.5380 8.1558 0.8428
-20.8065 28.2667 6.8225 0.8667
-20.6935 21.9854 5.8688 0.8842
-20.7066 17.2666 5.2407 0.8960
-21.4815 13.9040 4.9739 0.9010
-28.8682 14.0818 6.2434 0.8773
-38.3995 13.2916 7.8986 0.8474
-41.1890 -16.9501 8.6578 0.8340
-29.6908 -16.6469 6.6165 0.8705
-23.5497 -17.2285 5.6718 0.8879
-23.6638 -22.1432 6.2995 0.8763
-23.3430 -27.8278 7.0603 0.8624
-24.0575 -36.9308 8.5674 0.8356
-29.5590 -60.1489 13.0273 0.7610
-29.8306 -85.3703 17.5782 0.6918
-3.6368 -16.6096 3.3051 0.9331
-3.0655 -32.1877 6.2850 0.8766
0.8969 -34.9573 6.7972 0.8672
-3.7156 93.3725 14.8005 0.6849
-14.5530 89.9630 14.4340 0.6914
-24.3915 84.5109 13.9316 0.7003
-36.6847 86.3847 14.8646 0.6838
-20.6598 35.9002 6.5604 0.8456
-20.8138 27.7924 5.4995 0.8688
-20.6945 21.6254 4.7407 0.8858
-20.7074 16.9790 4.2413 0.8972
-22.3869 14.2291 4.2013 0.8981
-29.8572 14.2601 5.2406 0.8746
-42.0530 14.1684 7.0284 0.8355
-40.2840 -16.9682 6.9233 0.8378
-29.1243 -16.6471 5.3132 0.8730
-23.7360 -17.6676 4.6865 0.8871
-23.7165 -22.5627 5.1846 0.8758
-23.6859 -28.7150 5.8956 0.8601
-24.0217 -37.5505 7.0603 0.8348
-29.7653 -61.8547 10.8721 0.7573
-31.5107 -92.6291 15.4967 0.6728
-2.8920 -33.2758 5.2902 0.8735
1.2289 -36.2212 5.7402 0.8635
16.4820 -58.3883 9.6092 0.7822
14.8455 -35.5353 6.0996 0.8556
14.8237 -26.1115 4.7556 0.8855
14.8860 -20.1217 3.9643 0.9036
18.1034 -19.1410 4.1728 0.8988
16.8831 -14.0094 3.4747 0.9150
17.0656 -10.9877 3.2147 0.9211
25.0346 -12.1374 4.4065 0.8934
30.2896 -10.4030 5.0725 0.8784
61.4232 -13.1064 9.9475 0.7754
60.3454 16.8439 9.9231 0.7759
31.6245 13.1031 5.4217 0.8705
24.5378 13.8354 4.4616 0.8922
17.8570 13.1298 3.5105 0.9141
15.6703 14.7341 3.4067 0.9166
17.7342 21.2449 4.3831 0.8940
17.7412 27.3783 5.1671 0.8762
15.6545 32.0494 5.6493 0.8655
18.7858 86.7939 14.0651 0.6979
8.2905 89.3246 14.2084 0.6954
-2.5819 91.9991 14.5770 0.6889
-13.5143 90.2360 14.4514 0.6911
-23.4685 85.0404 13.9726 0.6996
-35.7612 87.0302 14.9026 0.6831
-20.6570 36.8884 6.6963 0.8426
-20.6809 28.2999 5.5516 0.8677
-20.6930 22.1373 4.7995 0.8845
-20.7611 17.4337 4.2938 0.8960
-21.8316 14.2378 4.1281 0.8998
-28.2758 13.9140 4.9913 0.8802
-25.4508 8.9081 4.2708 0.8965
-97.0430 9.2937 15.4404 0.6738
-40.8190 -16.6332 6.9812 0.8365
-29.7451 -16.5426 5.3907 0.8712
-23.7348 -17.2383 4.6461 0.8880
-23.9617 -22.2672 5.1809 0.8759
-23.8398 -28.2214 5.8512 0.8610
-24.0312 -36.6133 6.9365 0.8375
-24.0644 -48.5439 8.5815 0.8030
-29.8280 -84.4253 14.1817 0.6958
-3.2739 -33.1623 5.2779 0.8738
0.7616 -34.3003 5.4340 0.8703
16.2453 -60.2401 9.8819 0.7767
14.6122 -36.1621 6.1774 0.8539
14.6689 -26.5589 4.8055 0.8844
15.0626 -20.8673 4.0761 0.9010
17.6952 -19.1540 4.1301 0.8998
16.9614 -14.4133 3.5254 0.9138
18.6663 -12.3300 3.5432 0.9134
24.2884 -12.1291 4.2999 0.8959
30.0757 -10.7251 5.0573 0.8787
62.7683 -14.1642 10.1915 0.7706
38.3657 5.4017 6.1365 0.8548
69.5762 18.5446 11.4045 0.7471
32.6102 13.0660 5.5641 0.8674
24.5368 13.4584 4.4324 0.8928
18.3103 13.1355 3.5691 0.9128
15.6694 14.3912 3.3697 0.9174
17.7328 20.7444 4.3224 0.8954
17.7393 26.6851 5.0752 0.8783
15.9327 31.6726 5.6154 0.8662
8.4851 37.0953 6.0271 0.8572
7.4505 71.1985 11.3383 0.7483
-1.4617 89.4436 14.1684 0.6961
-12.5768 91.2624 14.5912 0.6886
-22.5402 85.5729 14.0157 0.6988
-33.7409 84.9300 14.4743 0.6907
-20.7088 38.0190 6.8570 0.8392
-20.6598 28.9776 5.6366 0.8658
-20.6249 22.5893 4.8448 0.8835
-20.7051 17.8045 4.3251 0.8953
-21.0165 14.0600 4.0049 0.9027
-27.6516 14.0116 4.9098 0.8820
-38.8456 14.1095 6.5458 0.8459
-41.4752 -16.3367 7.0603 0.8348
-30.5849 -16.5435 5.5074 0.8686
-23.7336 -16.8163 4.6070 0.8889
-24.0897 -21.8659 5.1528 0.8766
-24.1079 -27.8699 5.8365 0.8614
-23.7039 -35.2085 6.7225 0.8421
-24.1269 -47.2703 8.4057 0.8066
-29.8195 -81.3545 13.7236 0.7040
-3.6956 -33.4234 5.3260 0.8727
0.3604 -34.3736 5.4446 0.8700
16.4679 -64.0408 10.4731 0.7651
14.8092 -37.9227 6.4481 0.8480
14.9791 -27.8877 5.0138 0.8797
14.8675 -21.1140 4.0900 0.9007
17.2827 -19.1529 4.0860 0.9008
17.8839 -15.5616 3.7547 0.9085
16.7527 -11.3501 3.2050 0.9213
23.0668 -11.8587 4.1080 0.9003
27.1697 -10.0491 4.5882 0.8893
72.9650 -17.3659 11.8793 0.7380
38.2838 4.9335 6.1137 0.8553
69.5738 17.6736 11.3694 0.7477
33.7418 13.0628 5.7307 0.8637
24.5357 13.0863 4.4043 0.8935
18.7689 13.1342 3.6283 0.9114
15.6684 14.0555 3.3338 0.9183
17.7315 20.2574 4.2639 0.8967
15.6581 22.9661 4.4024 0.8935
15.6732 30.2683 5.3986 0.8711
22.1632 91.9258 14.9768 0.6818
10.5163 90.2675 14.3937 0.6921
-0.4082 88.2100 13.9712 0.6996
-11.4814 91.2006 14.5588 0.6892
-21.6058 86.1089 14.0611 0.6980
-30.9823 80.7301 13.6957 0.7046
-20.6400 38.9726 6.9849 0.8364
-20.6769 29.7325 5.7360 0.8636
-13.8279 15.5058 3.2906 0.9193
-20.7039 18.2296 4.3691 0.8943
-20.7150 14.2123 3.9789 0.9033
-26.9731 14.0672 4.8182 0.8841
-37.4616 14.1056 6.3400 0.8503
-97.3290 -11.9633 15.5314 0.6722
-37.0143 -9.1722 6.0398 0.8569
-44.5098 -16.9324 7.5425 0.8246
-32.4553 -17.0669 5.8078 0.8620
-24.2267 -16.7430 4.6643 0.8876
-24.0878 -21.3549 5.0985 0.8778
-24.1061 -27.2168 5.7584 0.8631
-23.7015 -34.3299 6.6073 0.8446
-24.0568 -45.7997 8.1938 0.8110
-29.7602 -78.3401 13.2730 0.7122
-2.2712 -18.5493 2.9599 0.9271
-0.0422 -34.2924 5.4314 0.8703
16.4574 -67.2564 10.9666 0.7555
14.6070 -38.7380 6.5572 0.8456
14.8652 -28.4705 5.0869 0.8780
14.8841 -21.6724 4.1641 0.8990
16.8629 -19.1336 4.0394 0.9019
15.8462 -14.1181 3.3614 0.9176
16.6857 -11.5922 3.2179 0.9210
19.2125 -10.1635 3.4425 0.9157
27.9138 -10.6976 4.7347 0.8860
63.4839 -15.8974 10.3653 0.7672
69.5714 16.8080 11.3361 0.7484
35.0370 13.0943 5.9242 0.8594
25.2340 13.0814 4.5018 0.8913
19.2212 13.1179 3.6857 0.9101
15.6675 13.7268 3.2992 0.9191
15.6427 17.4543 3.7122 0.9094
15.6565 22.3956 4.3279 0.8952
15.6709 29.4147 5.2787 0.8737
23.3027 91.9127 15.0181 0.6811
11.7154 91.2466 14.5707 0.6890
0.6085 85.8348 13.5952 0.7064
-10.5288 92.3521 14.7219 0.6863
-20.6653 86.6485 14.1087 0.6971
-30.0913 81.2412 13.7216 0.7041
-20.5633 39.9526 7.1168 0.8336
-20.8418 30.7314 5.8812 0.8604
-20.5420 23.5852 4.9537 0.8810
-20.7027 18.6636 4.4147 0.8933
-20.7141 14.5715 4.0112 0.9025
-26.2327 14.0744 4.7151 0.8864
-36.1616 14.1020 6.1475 0.8545
-95.7670 -10.6342 15.2612 0.6769
-37.1733 -8.7507 6.0486 0.8567
-33.3943 -17.0643 5.9397 0.8591
-24.8415 -16.7412 4.7446 0.8858
-24.1166 -20.8809 5.0525 0.8788
-24.1043 -26.5808 5.6832 0.8647
-24.0172 -33.9300 6.5841 0.8451
-29.6953 -54.9605 9.8942 0.7765
-29.6009 -75.2531 12.8079 0.7207
-2.4852 -18.4980 2.9561 0.9272
-0.4314 -33.3268 5.2789 0.8737
16.2484 -69.9414 11.3726 0.7477
14.8247 -40.7554 6.8688 0.8389
14.8629 -29.2977 5.2033 0.8754
14.8694 -22.2040 4.2325 0.8974
16.6534 -19.3482 4.0433 0.9018
15.8784 -14.4840 3.4040 0.9166
17.8404 -12.7068 3.4691 0.9151
18.8471 -10.2545 3.3983 0.9168
28.2622 -11.2126 4.8157 0.8841
67.3851 -17.7157 11.0354 0.7541
68.2734 15.6502 11.0939 0.7530
36.3194 13.0908 6.1147 0.8553
30.0697 15.1439 5.3325 0.8725
19.6814 13.0968 3.7443 0.9087
15.6666 13.4050 3.2657 0.9199
15.6769 17.0853 3.6726 0.9104
15.7202 21.9349 4.2742 0.8965
15.9442 29.1009 5.2556 0.8743
24.4514 91.9095 15.0634 0.6803
12.9112 92.0122 14.7161 0.6864
1.6020 85.1849 13.4944 0.7082
-9.4230 92.2430 14.6859 0.6869
-19.7182 87.1918 14.1586 0.6963
-29.1968 81.7543 13.7496 0.7036
-20.4591 40.9215 7.2462 0.8309
-20.6727 31.2645 5.9364 0.8592
-20.5143 24.1182 5.0149 0.8797
-20.6538 19.0629 4.4517 0.8924
-20.8882 15.0629 4.0789 0.9010
-25.5069 14.0724 4.6140 0.8887
-34.9378 14.0986 5.9672 0.8585
-66.7985 17.9804 10.9564 0.7557
-97.4142 2.1172 15.4325 0.6739
-97.2488 -9.6468 15.4783 0.6732
-47.8283 -16.9231 8.0355 0.8143
-34.3771 -17.0616 6.0785 0.8561
-26.0295 -17.1019 4.9329 0.8815
-24.1702 -20.4368 5.0132 0.8797
-24.1024 -25.9609 5.6107 0.8664
-24.1229 -33.2463 6.5058 0.8467
-24.0498 -43.2912 7.8437 0.8183
-29.7969 -73.2211 12.5206 0.7260
-25.2289 -92.6441 15.2077 0.6778
-2.4590 -16.8081 2.6905 0.9335
-0.8229 -33.3579 5.2850 0.8736
5.3214 -55.2951 8.7983 0.7985
16.4367 -74.7133 12.1164 0.7336
10.3369 -29.4890 4.9492 0.8811
14.8099 -30.0612 5.3077 0.8731
15.0645 -23.0755 4.3647 0.8944
16.2838 -19.3732 4.0084 0.9026
15.7483 -14.7070 3.4128 0.9164
17.9788 -13.1255 3.5257 0.9138
18.5938 -10.4009 3.3744 0.9173
28.7793 -11.8099 4.9271 0.8816
64.0963 -17.6565 10.5300 0.7640
63.2191 -9.4380 10.1239 0.7719
68.2710 14.8100 11.0646 0.7536
37.6873 13.0870 6.3187 0.8508
30.9625 15.1415 5.4590 0.8697
23.3547 15.1493 4.4091 0.8934
15.7295 13.1426 3.2465 0.9203
15.6661 16.6772 3.6240 0.9115
16.1116 21.9339 4.3105 0.8956
16.3896 29.0997 5.2897 0.8735
15.7296 38.0140 6.5159 0.8465
24.3980 87.5674 14.3976 0.6920
14.0607 92.3319 14.7925 0.6851
2.6182 85.7679 13.5906 0.7064
-8.4135 93.1397 14.8120 0.6847
-18.7644 87.7389 14.2107 0.6953
-28.2986 82.2696 13.7795 0.7030
-20.6102 42.4599 7.4754 0.8260
-20.0571 31.1198 5.8639 0.8608
-20.4810 24.6587 5.0770 0.8783
-20.7002 19.5598 4.5107 0.8911
-20.8872 15.4373 4.1137 0.9002
-24.8118 14.0705 4.5177 0.8909
-33.7840 14.0954 5.7979 0.8622
-49.8208 14.0386 8.1981 0.8109
-97.0534 3.2471 15.3804 0.6748
-95.3130 -8.3286 15.1536 0.6788
-49.7408 -16.9469 8.3229 0.8083
-35.2143 -16.9659 6.1910 0.8536
-26.7873 -17.1540 5.0381 0.8791
-24.1643 -19.9512 4.9632 0.8808
-24.1005 -25.3566 5.5407 0.8679
-24.1206 -32.4370 6.4023 0.8490
-24.0476 -42.1175 7.6815 0.8217
-29.9945 -71.3029 12.2518 0.7310
-26.3974 -92.6408 15.2569 0.6770
-2.6154 -16.5232 2.6496 0.9345
-1.2164 -33.4257 5.2976 0.8733
14.8222 -43.9260 7.3426 0.8288
14.8579 -31.0716 5.4550 0.8698
14.8793 -23.3859 4.3901 0.8938
15.7157 -19.1485 3.9235 0.9045
15.9652 -15.2635 3.4983 0.9144
18.0122 -13.4762 3.5629 0.9129
18.7882 -10.8005 3.4324 0.9160
27.7647 -11.7753 4.7766 0.8850
61.4315 -17.6991 10.1256 0.7719
61.2246 -9.8747 9.8223 0.7779
73.1902 14.9817 11.8326 0.7389
39.1495 13.0829 6.5377 0.8461
31.5949 14.9947 5.5391 0.8679
23.9623 15.1477 4.4900 0.8915
16.1080 13.1416 3.2926 0.9193
15.6747 16.2993 3.5816 0.9125
16.5099 21.9328 4.3480 0.8948
16.8410 29.0984 5.3250 0.8727
15.7262 36.7799 6.3355 0.8504
25.3190 86.9204 14.3390 0.6931
3.6453 86.2575 13.6741 0.7049
-7.3397 93.4576 14.8478 0.6841
-17.8035 88.2901 14.2653 0.6944
-27.3965 82.7870 13.8115 0.7025
-20.6378 43.8160 7.6710 0.8219
-20.0135 31.8658 5.9599 0.8587
-20.8636 25.7266 5.2462 0.8745
-20.6989 20.0226 4.5612 0.8899
-20.8186 15.7669 4.1363 0.8996
-24.1449 14.0686 4.4260 0.8930
-32.6938 14.0924 5.6387 0.8657
-47.8497 14.0901 7.9004 0.8171
-97.5430 4.4083 15.4651 0.6734
-98.3777 -7.4359 15.6260 0.6706
-51.7453 -16.9558 8.6244 0.8021
-35.5854 -16.6338 6.2215 0.8529
-27.4424 -17.1234 5.1232 0.8772
-24.1652 -19.4802 4.9161 0.8819
-24.0986 -24.7670 5.4732 0.8694
-24.1184 -31.6529 6.3028 0.8512
-24.1200 -41.1182 7.5503 0.8244
-31.0939 -71.5595 12.3576 0.7291
-27.5737 -92.6375 15.3085 0.6761
-5.9574 -34.9792 5.6199 0.8661
-1.5986 -33.2161 5.2670 0.8740
3.9820 -54.8169 8.7050 0.8004
14.8549 -45.7863 7.6240 0.8229
14.6549 -31.5926 5.5159 0.8685
10.6507 -17.1809 3.2017 0.9214
15.3431 -19.1475 3.8862 0.9054
16.0366 -15.6956 3.5540 0.9131
25.0119 -19.1743 4.9916 0.8802
20.8764 -12.3286 3.8400 0.9065
27.1493 -11.8916 4.6944 0.8869
60.1940 -18.1091 9.9559 0.7752
60.4020 -10.4697 9.7094 0.7802
73.2594 14.1039 11.8162 0.7392
40.6085 13.0437 6.7554 0.8414
31.6285 14.5592 5.5147 0.8685
24.4236 15.0418 4.5431 0.8903
16.4975 13.1405 3.3405 0.9181
15.6736 15.9206 3.5385 0.9135
16.9152 21.9316 4.3868 0.8939
17.2984 29.0972 5.3614 0.8719
15.7079 35.5783 6.1598 0.8543
26.4826 87.1021 14.4192 0.6916
16.5310 93.7397 15.0760 0.6801
4.6991 87.0171 13.8023 0.7026
-6.2693 93.9158 14.9079 0.6830
-2.5602 13.5115 2.1781 0.9458
-26.4897 83.3073 13.8456 0.7019
-32.5153 71.1852 12.3951 0.7284
-20.6657 33.7766 6.2716 0.8518
-20.6869 26.1286 5.2784 0.8737
-15.6387 15.4866 3.4859 0.9147
-20.7099 16.0698 4.1518 0.8993
-23.5046 14.0669 4.3385 0.8950
-31.9589 14.2218 5.5404 0.8679
-45.9452 14.1162 7.6127 0.8231
-96.4693 5.4927 15.3040 0.6762
-98.2277 -6.2684 15.5894 0.6712
-36.5506 -16.5661 6.3559 0.8500
-28.0906 -17.0740 5.2065 0.8754
-24.1182 -18.9806 4.8610 0.8831
-23.6063 -23.6991 5.2980 0.8733
-24.1163 -30.8924 6.2073 0.8532
-23.3159 -38.7009 7.1561 0.8328
-14.2390 -31.7467 5.5108 0.8686
-28.7585 -92.6342 15.3626 0.6752
-2.0606 -34.4127 5.4602 0.8697
2.3510 -38.6227 6.1286 0.8550
14.9881 -48.1096 7.9810 0.8154
14.8525 -33.0266 5.7355 0.8636
14.8758 -24.6363 4.5582 0.8900
14.9382 -19.0964 3.8400 0.9065
15.6900 -15.7204 3.5178 0.9140
18.1724 -14.2721 3.6598 0.9107
20.8309 -12.6331 3.8586 0.9060
26.4144 -11.9404 4.5912 0.8892
60.1918 -18.8801 9.9914 0.7745
60.7369 -11.2621 9.7838 0.7787
76.5006 13.8002 12.3121 0.7299
54.7933 16.8943 9.0815 0.7928
18.4518 8.2331 3.2002 0.9214
24.5403 14.7198 4.5324 0.8906
16.8987 13.1394 3.3904 0.9170
15.6726 15.5508 3.4969 0.9145
17.3277 21.9305 4.4268 0.8930
17.6003 28.8306 5.3500 0.8721
15.7199 34.5058 6.0056 0.8576
29.1263 91.9146 15.2713 0.6767
6.9917 37.1003 5.9796 0.8582
5.7584 87.5692 13.8996 0.7009
-5.1862 94.2994 14.9582 0.6822
-15.8582 89.4060 14.3816 0.6923
-25.5786 83.8299 13.8817 0.7012
-32.1706 72.6710 12.5873 0.7248
-20.6632 34.6785 6.3936 0.8492
-20.6852 26.7647 5.3576 0.8720
-20.6962 20.9807 4.6677 0.8875
-20.7088 16.4613 4.1899 0.8984
-22.8887 14.0652 4.2550 0.8969
-30.6824 14.0868 5.3473 0.8722
-43.5184 13.9308 7.2372 0.8311
-38.8195 -17.0492 6.7153 0.8422
-28.8439 -17.0724 5.3087 0.8731
-24.0796 -18.4977 4.8092 0.8843
-23.6553 -23.1983 5.2476 0.8744
-23.6884 -29.6223 6.0074 0.8576
-23.4493 -37.9105 7.0603 0.8348
-33.0203 -71.3698 12.4551 0.7273
-29.9523 -92.6334 15.4196 0.6742
-2.4102 -33.6412 5.3419 0.8723
1.9127 -38.9367 6.1744 0.8540
16.2912 -54.5345 9.0146 0.7941
14.8496 -34.0822 5.8882 0.8602
15.0569 -25.6096 4.7053 0.8866
14.8901 -19.5015 3.8861 0.9054
15.5430 -15.9425 3.5265 0.9138
16.9671 -13.6500 3.4490 0.9156
18.4132 -11.4640 3.4354 0.9159
25.4915 -11.8848 4.4547 0.8923
60.1896 -19.6567 10.0286 0.7738
62.1040 -12.2697 10.0265 0.7739
57.1409 16.8878 9.4372 0.7856
31.6260 13.6694 5.4569 0.8698
24.5392 14.3310 4.5009 0.8913
17.3120 13.1382 3.4421 0.9157
15.6716 15.1897 3.4567 0.9154
17.6540 21.8130 4.4446 0.8926
17.7438 28.3143 5.2924 0.8734
15.7170 33.4547 5.8543 0.8610
30.3685 92.0743 15.3559 0.6753
17.4205 86.8356 14.0275 0.6986
6.8589 88.4607 14.0529 0.6981
-4.0648 93.9813 14.8991 0.6832
-14.8736 89.9709 14.4434 0.6912
-24.6627 84.3553 13.9199 0.7005
-36.6869 85.5671 14.7456 0.6859
-20.7449 35.7618 6.5481 0.8458
-20.8143 27.5939 5.4744 0.8694
-20.6949 21.4768 4.7238 0.8862
-20.7077 16.8600 4.2294 0.8975
-22.4227 14.1433 4.1989 0.8982
-29.9225 14.1646 5.2434 0.8745
-42.2873 14.0848 7.0594 0.8348
-40.0807 -17.0457 6.8984 0.8383
-29.1158 -16.7758 5.3222 0.8728
-23.7363 -17.7956 4.6987 0.8868
-23.7028 -22.7061 5.1987 0.8755
-23.6864 -28.9185 5.9205 0.8595
-23.8917 -37.6333 7.0603 0.8348
-29.7669 -62.4089 10.9514 0.7558
-31.1543 -92.6301 15.4787 0.6731
-2.7582 -33.0606 5.2545 0.8743
1.3582 -36.3277 5.7578 0.8631
16.4841 -57.6334 9.4943 0.7845
14.8465 -35.1953 6.0500 0.8567
14.8541 -25.9559 4.7366 0.8859
14.8888 -19.9807 3.9466 0.9040
15.5872 -16.3670 3.5798 0.9125
16.9159 -13.9383 3.4716 0.9151
17.8132 -11.3822 3.3481 0.9180
25.0842 -12.0547 4.4079 0.8934
30.9619 -10.5146 5.1789 0.8760
61.8016 -12.9642 10.0015 0.7743
59.5587 16.8461 9.8033 0.7783
31.6248 13.2313 5.4296 0.8704
24.5381 13.9474 4.4704 0.8920
17.7383 13.1371 3.4961 0.9145
15.6706 14.8366 3.4179 0.9163
17.7346 21.3951 4.4015 0.8936
17.7418 27.5873 5.1950 0.8756
15.6552 32.3334 5.6898 0.8646
31.4899 91.8420 15.3776 0.6749
18.4747 86.8033 14.0562 0.6981
7.9631 89.1367 14.1741 0.6960
-2.9180 92.5850 14.6713 0.6872
-13.8452 90.3167 14.4719 0.6907
-23.7408 84.8842 13.9603 0.6998
-36.2106 87.2665 14.9643 0.6821
-20.6578 36.5933 6.6556 0.8435
-20.8065 28.2667 5.5591 0.8675
-20.6935 21.9854 4.7820 0.8849
-20.7066 17.2666 4.2702 0.8966
-21.9440 14.2033 4.1401 0.8995
-28.4940 13.8992 5.0213 0.8795
-40.7633 14.1098 6.8321 0.8397
-96.6329 8.9175 15.3702 0.6750
-37.1177 -10.2644 6.0995 0.8556
-40.8191 -16.7979 6.9911 0.8363
-29.5059 -16.5433 5.3577 0.8720
-23.7351 -17.3641 4.6579 0.8877
-23.8134 -22.2831 5.1654 0.8763
-23.6845 -28.2349 5.8370 0.8614
-24.0320 -36.8917 6.9735 0.8367
-24.0656 -48.9706 8.6422 0.8017
-29.8306 -85.3704 14.3230 0.6933
-3.1603 -33.1824 5.2794 0.8737
0.8804 -34.3149 5.4367 0.8702
-3.7156 93.3725 11.4738 0.6862
-14.6919 90.8212 11.2964 0.6902
-24.9754 86.5340 11.0587 0.6956
-36.6847 86.3848 11.5235 0.6851
-20.4701 35.5706 5.0391 0.8476
-20.8138 27.7924 4.2634 0.8694
-20.6945 21.6254 3.6752 0.8864
-20.7074 16.9790 3.2880 0.8977
-22.3869 14.2291 3.2570 0.8986
-29.8572 14.2601 4.0627 0.8752
-42.2820 14.2455 5.4783 0.8354
-59.1755 -16.8916 7.5560 0.7804
-40.4632 -17.0436 5.3910 0.8378
-29.2862 -16.7396 4.1419 0.8729
-23.7360 -17.6676 3.6331 0.8876
-23.7497 -22.5943 4.0249 0.8762
-23.7670 -28.8133 4.5861 0.8603
-24.1343 -37.7266 5.4990 0.8349
-24.1701 -50.2274 6.8440 0.7988
-31.5107 -92.6291 12.0135 0.6741
-2.9842 -34.3377 4.2320 0.8703
1.2183 -35.9077 4.4114 0.8652
7.6939 -49.3956 6.1381 0.8175
16.6664 -59.0414 7.5327 0.7810
14.8878 -35.6364 4.7421 0.8559
14.8237 -26.1115 3.6867 0.8860
14.6692 -19.8287 3.0285 0.9054
17.9745 -19.0048 3.2119 0.8999
16.8837 -14.0099 2.6938 0.9154
17.7461 -11.4258 2.5915 0.9185
27.0269 -13.1033 3.6879 0.8860
52.0278 -17.8691 6.7545 0.8012
60.9565 -13.0068 7.6530 0.7779
60.3455 16.8439 7.6927 0.7769
31.6245 13.1031 4.2031 0.8711
23.2105 13.0870 3.2717 0.8982
17.8191 13.1020 2.7157 0.9147
15.6351 14.7010 2.6351 0.9171
15.6816 18.7859 3.0046 0.9061
15.6965 24.2230 3.5441 0.8902
17.7529 36.3455 4.9666 0.8496
18.2080 84.1240 10.5683 0.7069
7.8656 84.7460 10.4502 0.7096
-2.5819 91.9991 11.3005 0.6901
-13.2916 88.7486 11.0185 0.6965
-23.6514 85.7029 10.9164 0.6989
-36.6767 89.2583 11.8487 0.6778
-20.6570 36.8884 5.1911 0.8433
-20.6809 28.3000 4.3038 0.8683
-20.6930 22.1373 3.7207 0.8850
-20.7611 17.4337 3.3287 0.8965
-21.8316 14.2378 3.2003 0.9003
-28.6154 14.0811 3.9159 0.8794
-25.4487 8.9074 3.3106 0.8970
-61.8869 -16.8840 7.8765 0.7722
-40.8266 -16.6363 5.4131 0.8372
-30.0761 -16.7267 4.2256 0.8705
-23.7348 -17.2384 3.6018 0.8885
-23.9932 -22.2965 4.0217 0.8763
-23.9149 -28.3105 4.5502 0.8613
-24.1318 -36.7665 5.3999 0.8376
-24.1660 -48.7488 6.6807 0.8031
-29.8272 -84.4231 10.9938 0.6971
-3.3966 -34.4056 4.2450 0.8699
0.7947 -35.7910 4.3957 0.8656
7.0860 -49.2823 6.1133 0.8182
16.2750 -60.3502 7.6748 0.7773
14.6420 -36.2359 4.7987 0.8543
14.6689 -26.5589 3.7254 0.8849
14.6567 -20.3051 3.0748 0.9040
17.4811 -18.9223 3.1631 0.9014
15.6982 -13.3398 2.5294 0.9203
17.6925 -11.6868 2.6035 0.9181
24.2864 -12.1281 3.3331 0.8964
51.2903 -18.2902 6.6861 0.8030
60.7208 -13.7021 7.6430 0.7781
61.4512 16.3789 7.8087 0.7739
32.6102 13.0660 4.3135 0.8680
23.9196 13.1199 3.3497 0.8959
18.2618 13.1007 2.7596 0.9134
15.6342 14.3588 2.6064 0.9180
15.6803 18.3433 2.9630 0.9073
15.6597 23.5568 3.4732 0.8923
17.7499 35.2851 4.8498 0.8528
19.2397 84.1123 10.5944 0.7063
7.4571 71.2622 8.7977 0.7492
-1.4618 89.4437 10.9838 0.6973
-12.8813 93.4719 11.5854 0.6837
-22.7110 86.2210 10.9477 0.6981
-35.3865 89.0722 11.7682 0.6796
-20.8217 38.2261 5.3447 0.8391
-20.6315 28.9379 4.3637 0.8666
-20.7464 22.7222 3.7779 0.8834
-20.7599 17.8516 3.3618 0.8955
-21.0165 14.0600 3.1047 0.9031
-27.7842 14.0788 3.8244 0.8820
-38.3570 13.9321 5.0107 0.8484
-65.0034 -16.9187 8.2473 0.7628
-41.9203 -16.5120 5.5321 0.8340
-30.9252 -16.7276 4.3171 0.8679
-23.7336 -16.8163 3.5715 0.8894
-24.1437 -21.9148 4.0036 0.8769
-24.0546 -27.8082 4.5146 0.8623
-23.7211 -35.2340 5.2153 0.8427
-23.6439 -46.3239 6.3859 0.8109
-24.1124 -65.7843 8.6028 0.7540
-3.9139 -35.3981 4.3728 0.8663
0.3767 -35.9271 4.4115 0.8652
16.4680 -64.0408 8.1190 0.7661
15.0006 -38.4128 5.0634 0.8469
15.0893 -28.0928 3.9154 0.8794
14.6553 -20.8127 3.1255 0.9025
17.0737 -18.9212 3.1292 0.9024
16.6610 -14.4975 2.7117 0.9148
17.3559 -11.7587 2.5741 0.9190
26.7168 -13.7351 3.6885 0.8860
50.5460 -18.6952 6.6172 0.8048
61.4985 -14.6368 7.7620 0.7751
64.2459 16.3202 8.1389 0.7656
39.0787 15.1289 5.1453 0.8446
24.5301 13.0833 3.4135 0.8940
18.7689 13.1342 2.8128 0.9118
15.6774 14.0635 2.5860 0.9186
15.6791 17.9127 2.9229 0.9085
15.6581 22.9661 3.4129 0.8940
15.6732 30.2683 4.1852 0.8717
20.2783 84.1080 10.6231 0.7056
9.8706 84.7254 10.4733 0.7091
-0.4082 88.2100 10.8309 0.7008
-11.8423 94.0679 11.6413 0.6824
-21.6276 86.1955 10.9115 0.6990
-31.1053 81.0506 10.6595 0.7048
-20.6399 38.9726 5.4149 0.8372
-20.1233 28.9365 4.3276 0.8676
-20.7449 23.2622 3.8270 0.8820
-20.7458 18.2665 3.3939 0.8946
-20.7151 14.2123 3.0846 0.9037
-27.0969 14.1318 3.7524 0.8841
-37.2829 14.0383 4.8915 0.8517
-44.7734 -17.0326 5.8818 0.8244
-33.2243 -17.4713 4.6091 0.8596
-24.2267 -16.7430 3.6159 0.8881
-24.3016 -21.5444 3.9876 0.8773
-24.2298 -27.3565 4.4870 0.8631
-23.7826 -34.4474 5.1397 0.8448
-23.8057 -45.3217 6.2858 0.8136
-24.1059 -63.4559 8.3347 0.7607
-2.2638 -18.4890 2.2871 0.9277
-0.0440 -35.7309 4.3872 0.8659
16.4574 -67.2564 8.5017 0.7565
14.8350 -39.3426 5.1627 0.8441
14.8652 -28.4705 3.9436 0.8786
14.7347 -21.4548 3.1957 0.9004
16.6747 -18.9201 3.0965 0.9034
19.1941 -17.1009 3.1564 0.9016
17.1399 -11.9077 2.5625 0.9193
25.7655 -13.6300 3.5790 0.8892
50.3731 -19.3049 6.6237 0.8046
59.2787 -14.8443 7.5032 0.7817
67.5149 16.3112 8.5283 0.7558
44.7019 16.7064 5.8595 0.8250
25.2341 13.0814 3.4899 0.8918
19.2315 13.1250 2.8588 0.9104
15.8411 13.8789 2.5860 0.9186
15.6780 17.4936 2.8843 0.9097
15.6565 22.3955 3.3552 0.8957
15.6709 29.4148 4.0923 0.8743
21.3232 84.1051 10.6535 0.7049
10.8748 84.6996 10.4852 0.7088
0.6127 86.4304 10.6126 0.7059
-10.7930 94.6698 11.6993 0.6811
-20.8218 87.3048 11.0203 0.6965
-29.6344 80.0077 10.4759 0.7090
-20.8227 40.4565 5.5868 0.8325
-20.0797 29.6077 4.3925 0.8657
-20.6885 23.7534 3.8677 0.8808
-20.7027 18.6636 3.4224 0.8937
-20.7140 14.5715 3.1096 0.9030
-26.2327 14.0744 3.6553 0.8869
-36.1616 14.1020 4.7658 0.8552
-98.4537 -10.9326 12.1629 0.6708
-46.3895 -17.0281 6.0675 0.8194
-33.8064 -17.2748 4.6614 0.8581
-24.8415 -16.7412 3.6781 0.8863
-24.5706 -21.2740 3.9906 0.8772
-24.4401 -26.9511 4.4672 0.8636
-24.0803 -34.0191 5.1176 0.8454
-24.1547 -44.7060 6.2392 0.8148
-24.2032 -61.5307 8.1185 0.7661
-24.9359 -95.9910 12.1774 0.6705
-2.4766 -18.4342 2.2838 0.9278
-0.4719 -36.4516 4.4761 0.8634
16.2484 -69.9414 8.8164 0.7487
14.7805 -40.6339 5.3090 0.8401
14.8629 -29.2977 4.0337 0.8760
14.7331 -22.0006 3.2511 0.8988
16.2839 -18.9190 3.0649 0.9043
17.1310 -15.6267 2.8471 0.9108
16.9949 -12.1046 2.5619 0.9194
25.1358 -13.6761 3.5135 0.8911
30.0054 -11.9042 3.9635 0.8780
59.4912 -15.6404 7.5528 0.7804
64.8472 -8.9057 8.0370 0.7681
68.2733 15.6502 8.6003 0.7541
46.9325 16.9161 6.1255 0.8179
25.9803 13.0844 3.5717 0.8894
19.7336 13.1315 2.9104 0.9089
16.0026 13.6924 2.5860 0.9186
15.6769 17.0853 2.8471 0.9108
15.6768 21.8743 3.3044 0.8972
15.9442 29.1009 4.0743 0.8748
22.3743 84.1022 10.6856 0.7042
11.8663 84.5663 10.4852 0.7088
1.5948 84.8036 10.4144 0.7105
-9.7331 95.2779 11.7595 0.6798
-29.4733 82.5286 10.7601 0.7025
-20.6448 41.2929 5.6685 0.8302
-20.6727 31.2645 4.6021 0.8598
-20.6919 24.3271 3.9213 0.8792
-20.6538 19.0629 3.4510 0.8929
-20.8882 15.0629 3.1621 0.9014
-25.5069 14.0724 3.5769 0.8892
-34.9378 14.0986 4.6259 0.8591
-66.8318 17.9894 8.4980 0.7566
-98.2399 -9.7451 12.1215 0.6718
-46.9215 -16.6023 6.1112 0.8183
-34.4556 -17.1005 4.7230 0.8564
-35.3520 -23.2269 5.1937 0.8433
-30.7393 -25.9913 4.9427 0.8502
-24.7632 -26.6726 4.4688 0.8636
-24.1207 -33.2433 5.0430 0.8475
-24.1513 -43.4739 6.1063 0.8184
-29.7578 -73.1251 9.6936 0.7275
-25.2289 -92.6441 11.7895 0.6791
-2.4581 -16.8021 2.0850 0.9339
-0.8669 -35.1440 4.3165 0.8679
16.4367 -74.7133 9.3930 0.7347
14.6268 -41.7269 5.4291 0.8368
15.0525 -30.5536 4.1821 0.8717
15.0944 -23.1213 3.3904 0.8947
15.9084 -18.9266 3.0358 0.9052
16.9799 -15.8572 2.8526 0.9106
16.8317 -12.2881 2.5588 0.9194
21.2479 -11.8855 2.9893 0.9065
29.3059 -12.0259 3.8895 0.8802
60.4491 -16.6518 7.6987 0.7767
63.7458 -9.5166 7.9137 0.7712
68.2710 14.8100 8.5776 0.7546
48.7001 16.9112 6.3299 0.8124
26.8228 13.1170 3.6661 0.8866
20.2418 13.1301 2.9625 0.9073
16.1619 13.5039 2.5860 0.9186
15.6661 16.6771 2.8095 0.9119
15.6887 21.3581 3.2539 0.8987
16.3896 29.0997 4.1007 0.8741
10.3348 37.0928 4.7279 0.8563
12.8560 84.4215 10.4852 0.7088
2.5887 84.8008 10.4171 0.7104
-8.6621 95.8922 11.8220 0.6784
-18.9017 88.3806 11.0969 0.6947
-28.9761 84.2390 10.9381 0.6984
-20.6960 42.6367 5.8193 0.8261
-20.3506 31.5752 4.6124 0.8595
-20.7451 24.9766 3.9866 0.8774
-20.7002 19.5598 3.4968 0.8916
-20.8872 15.4373 3.1891 0.9006
-24.9225 14.1333 3.5179 0.8910
-33.7840 14.0954 4.4947 0.8628
-50.1664 14.1359 6.3995 0.8105
-49.9501 -17.0182 6.4793 0.8084
-35.3036 -17.0090 4.8116 0.8539
-36.1476 -23.1481 5.2704 0.8411
-30.7295 -25.3717 4.8930 0.8516
-30.6727 -32.2713 5.4667 0.8357
-24.1826 -32.5204 4.9760 0.8493
-24.1480 -42.2934 5.9798 0.8218
-24.0887 -57.2636 7.6279 0.7785
-26.3974 -92.6408 11.8276 0.6783
-5.8038 -36.6672 4.5582 0.8610
-1.2762 -35.0681 4.3087 0.8681
14.8222 -43.9260 5.6922 0.8296
14.8579 -31.0716 4.2289 0.8704
14.8613 -23.3577 3.3992 0.8944
15.5405 -18.9351 3.0077 0.9060
20.0413 -19.1605 3.4044 0.8943
16.7539 -12.5348 2.5691 0.9191
20.4293 -11.7438 2.8933 0.9094
32.8214 -13.9199 4.3774 0.8662
60.6771 -17.4818 7.7533 0.7753
62.9561 -10.1540 7.8299 0.7734
70.1849 14.3665 8.7963 0.7492
50.5897 16.9060 6.5493 0.8066
31.5949 14.9947 4.2941 0.8685
20.7135 13.0939 3.0088 0.9060
16.3190 13.3137 2.5860 0.9186
15.6394 16.2626 2.7703 0.9131
15.6873 20.8399 3.2027 0.9002
16.8410 29.0984 4.1281 0.8733
24.5200 84.1774 10.7652 0.7023
13.8444 84.2651 10.4852 0.7088
3.5837 84.7980 10.4212 0.7103
-7.4539 94.9116 11.6896 0.6814
-17.9301 88.9179 11.1375 0.6938
-28.0524 84.7689 10.9634 0.6978
-20.6378 43.8159 5.9468 0.8227
-20.6681 32.9080 4.7714 0.8550
-20.7434 25.5783 4.0436 0.8757
-20.8740 20.1920 3.5659 0.8895
-20.8186 15.7669 3.2065 0.9001
-24.3027 14.1606 3.4536 0.8928
-32.6937 14.0924 4.3713 0.8663
-47.9846 14.1299 6.1419 0.8174
-37.1191 -12.1631 4.7961 0.8543
-35.7573 -16.7142 4.8464 0.8529
-28.1716 -17.5784 4.0772 0.8747
-30.6151 -24.6797 4.8284 0.8534
-24.3297 -25.0045 4.2837 0.8688
-24.2509 -31.8268 4.9130 0.8511
-23.7185 -40.4336 5.7558 0.8279
-23.3578 -53.7555 7.1965 0.7896
-27.5737 -92.6376 11.8676 0.6774
-6.3855 -37.4925 4.6698 0.8579
-1.6949 -35.2169 4.3291 0.8675
14.8174 -45.6707 5.8954 0.8241
14.6549 -31.5926 4.2761 0.8691
10.6472 -17.1752 2.4812 0.9218
15.1794 -18.9432 2.9805 0.9068
19.5755 -19.1592 3.3632 0.8955
16.8535 -12.9201 2.6075 0.9180
20.8556 -12.3163 2.9739 0.9070
26.6166 -11.6583 3.5679 0.8895
60.1939 -18.1091 7.7181 0.7762
62.3221 -10.8025 7.7663 0.7750
74.1239 14.2703 9.2684 0.7377
52.6151 16.9003 6.7854 0.8003
31.6285 14.5592 4.2752 0.8691
21.3147 13.1271 3.0736 0.9040
16.4738 13.1216 2.5860 0.9186
15.6384 15.8849 2.7370 0.9141
15.6859 20.3378 3.1536 0.9017
17.2984 29.0971 4.1564 0.8725
25.5924 84.1744 10.8024 0.7015
14.8413 84.1588 10.4928 0.7086
4.5791 84.7952 10.4267 0.7102
-6.3525 95.1624 11.7105 0.6809
-2.5600 13.5105 1.6884 0.9461
-27.1238 85.3016 10.9905 0.6972
-32.7701 71.7429 9.6844 0.7277
-20.5992 33.6679 4.8463 0.8529
-20.6869 26.1286 4.0920 0.8743
-15.6368 15.4847 2.7021 0.9151
-20.7099 16.0698 3.2186 0.8997
-23.5046 14.0669 3.3634 0.8955
-31.7859 14.1448 4.2718 0.8692
-45.7113 14.0444 5.8716 0.8247
-97.5152 5.5523 11.9927 0.6746
-52.6954 -16.5862 6.7831 0.8004
-37.6193 -17.0505 5.0714 0.8467
-28.4679 -17.3033 4.0904 0.8744
-30.3070 -23.8511 4.7354 0.8561
-23.7531 -23.8465 4.1327 0.8732
-24.1983 -30.9975 4.8284 0.8534
-23.8237 -39.5438 5.6684 0.8302
-23.5319 -52.4656 7.0603 0.7932
-28.7585 -92.6343 11.9096 0.6765
-2.0615 -34.4276 4.2348 0.8702
3.5657 -58.5779 7.2058 0.7894
14.8122 -47.5448 6.1145 0.8182
15.0247 -33.4095 4.4979 0.8627
14.8578 -24.6066 3.5294 0.8906
14.8245 -18.9511 2.9543 0.9076
17.5344 -17.5683 3.0477 0.9048
17.1299 -13.4534 2.6744 0.9160
20.5880 -12.4858 2.9564 0.9075
26.3721 -11.9213 3.5536 0.8899
60.1919 -18.8801 7.7457 0.7755
60.4089 -11.2013 7.5437 0.7807
90.0279 16.2405 11.2324 0.6917
59.5254 18.3533 7.6483 0.7780
18.4503 8.2324 2.4805 0.9218
