ply
format ascii 1.0
element vertex 1527
property float32 x
property float32 y
property float32 z
property float32 I
end_header
-26.7836 8.0459 0.4881 0.8942
-49.8376 -22.9776 0.9579 0.8029
-36.8725 -22.7411 0.7562 0.8409
-29.7491 -23.7282 0.6642 0.8588
-23.7148 -24.1225 0.5904 0.8734
-26.0080 -33.7725 0.7440 0.8432
-19.8027 -33.3681 0.6773 0.8562
-19.7277 -44.7808 0.8541 0.8222
-19.2643 -63.5527 1.1590 0.7667
21.2585 -66.6230 1.2207 0.7560
20.1353 -43.9605 0.8440 0.8241
19.7043 -32.1276 0.6579 0.8600
20.1916 -25.4449 0.5670 0.8781
25.8477 -25.5377 0.6342 0.8647
33.0172 -25.5576 0.7288 0.8462
64.7363 -38.6371 1.3159 0.7396
64.2818 -28.5102 1.2273 0.7548
77.7690 -23.7855 1.4195 0.7223
24.9486 4.6880 0.4431 0.9034
21.1252 6.6828 0.3867 0.9152
19.2389 8.7540 0.3689 0.9189
18.5659 11.3231 0.3796 0.9167
18.7482 14.8014 0.4169 0.9089
18.9007 19.0349 0.4682 0.8982
18.7333 24.0769 0.5325 0.8851
35.2286 78.8985 1.5082 0.7077
24.3922 79.0476 1.4440 0.7182
11.8224 65.4645 1.1612 0.7663
2.3298 40.1052 0.7012 0.8515
-6.0219 96.0522 1.6799 0.6804
-20.2400 64.5409 1.1807 0.7629
-16.0615 35.5335 0.6807 0.8556
-16.0296 26.4309 0.5396 0.8837
-16.1033 20.5021 0.4551 0.9010
-16.1106 16.0770 0.3973 0.9130
-16.1202 12.6072 0.3572 0.9214
-16.1282 9.7353 0.3288 0.9274
-17.8445 8.0211 0.3415 0.9247
-25.8370 8.0433 0.4723 0.8974
-44.1628 8.0892 0.7837 0.8356
-52.5870 -23.6122 1.0062 0.7940
-37.7053 -22.7388 0.7685 0.8385
-29.7303 -23.2321 0.6586 0.8599
-23.7360 -23.6674 0.5851 0.8745
-19.4257 -24.7115 0.5487 0.8818
-12.3652 -20.3701 0.4159 0.9091
-20.2675 -44.7901 0.8581 0.8215
-19.5315 -62.1937 1.1379 0.7704
21.1267 -68.5627 1.2523 0.7505
19.7097 -44.1898 0.8446 0.8240
19.7023 -32.8547 0.6687 0.8579
19.6607 -25.2896 0.5591 0.8797
25.1370 -25.3358 0.6230 0.8669
32.0893 -25.3551 0.7139 0.8491
33.2187 -20.2780 0.6793 0.8558
64.9844 -29.6007 1.2464 0.7515
75.0260 -23.7671 1.3737 0.7299
27.2235 4.8351 0.4826 0.8953
20.4399 6.2425 0.3730 0.9181
19.3028 8.5519 0.3685 0.9190
18.6661 11.1305 0.3793 0.9167
18.5391 14.3387 0.4091 0.9105
18.4217 18.1863 0.4518 0.9016
22.1844 27.9333 0.6226 0.8670
25.2573 79.0452 1.4485 0.7175
15.0957 79.0734 1.4052 0.7247
5.4888 80.5956 1.4101 0.7238
-4.7908 90.9247 1.5893 0.6947
-16.4984 94.2572 1.6703 0.6819
-16.2333 36.8888 0.7035 0.8511
-15.8562 26.7426 0.5427 0.8830
-16.1021 20.9266 0.4609 0.8998
-16.2848 16.5780 0.4056 0.9112
-16.1195 12.8676 0.3600 0.9208
-16.1276 9.9556 0.3308 0.9270
-17.7590 8.1965 0.3414 0.9247
-25.3398 8.1665 0.4647 0.8990
-41.7719 8.0825 0.7427 0.8435
-52.5555 -22.9714 1.0012 0.7950
-50.0825 -29.5264 1.0148 0.7925
-30.0864 -23.0310 0.6614 0.8593
-23.7102 -23.1750 0.5787 0.8758
-19.1539 -23.8722 0.5342 0.8848
-20.7008 -33.3481 0.6851 0.8547
-19.2025 -41.3343 0.7956 0.8333
-20.1273 -61.9240 1.1366 0.7707
2.0753 -43.5141 0.7604 0.8401
20.4328 -68.7390 1.2517 0.7506
19.5309 -44.9893 0.8561 0.8218
19.7002 -33.6064 0.6800 0.8557
19.7178 -25.8917 0.5681 0.8779
24.6091 -25.3033 0.6161 0.8683
31.4377 -25.3533 0.7050 0.8508
32.9588 -20.5731 0.6782 0.8560
64.7825 -30.2920 1.2483 0.7512
72.4854 -23.7601 1.3315 0.7370
28.3720 4.7477 0.5021 0.8913
20.5640 6.0569 0.3742 0.9178
19.3975 8.3635 0.3687 0.9190
18.6103 10.8472 0.3760 0.9174
18.4098 13.9475 0.4031 0.9117
18.5813 17.9816 0.4513 0.9017
22.1828 27.3665 0.6149 0.8685
26.0236 78.7283 1.4473 0.7177
15.8507 78.7566 1.4023 0.7251
6.1552 78.7836 1.3794 0.7290
-3.8420 89.9857 1.5721 0.6974
-15.4317 93.6524 1.6567 0.6841
-16.0560 37.4956 0.7120 0.8494
-15.7600 27.1948 0.5486 0.8818
-16.2758 21.5946 0.4720 0.8975
-16.2838 16.9111 0.4098 0.9104
-16.0397 13.0679 0.3611 0.9206
-16.1270 10.1786 0.3329 0.9265
-17.3009 8.1952 0.3342 0.9263
-24.1167 8.0385 0.4437 0.9033
-39.1316 7.9770 0.6971 0.8523
-93.4514 -15.1595 1.6525 0.6847
-69.3815 -20.0604 1.2607 0.7491
-53.5566 -22.7757 1.0158 0.7923
-41.1657 -23.7196 0.8293 0.8269
-30.7211 -23.0346 0.6702 0.8576
-24.0512 -23.0438 0.5814 0.8752
-19.1526 -23.3889 0.5277 0.8861
-19.4442 -30.6378 0.6334 0.8649
-19.1995 -40.2726 0.7788 0.8365
-19.2468 -57.2671 1.0545 0.7853
-19.9163 -96.4703 1.7194 0.6743
2.4217 -64.2310 1.1219 0.7733
20.2388 -70.6582 1.2829 0.7452
19.6642 -46.5619 0.8822 0.8169
19.6980 -34.3841 0.6917 0.8534
19.7163 -26.4324 0.5756 0.8764
24.2208 -25.4061 0.6127 0.8690
31.0458 -25.5522 0.7018 0.8514
64.7289 -41.3067 1.3403 0.7355
64.7568 -31.0705 1.2537 0.7503
70.0964 -23.7533 1.2919 0.7437
30.7435 4.8300 0.5432 0.8829
21.3780 6.0657 0.3879 0.9149
22.1547 9.2914 0.4193 0.9084
22.1639 12.6240 0.4452 0.9030
18.5251 13.7463 0.4027 0.9118
18.7234 17.7610 0.4505 0.9019
18.5747 22.4538 0.5087 0.8900
28.1282 43.8363 0.9091 0.8119
14.9745 31.0112 0.6011 0.8713
27.0039 79.0404 1.4579 0.7159
16.6823 78.8191 1.4063 0.7245
6.9690 79.0461 1.3851 0.7280
-2.9066 88.8480 1.5517 0.7007
-14.2342 92.0996 1.6267 0.6888
-24.9181 88.6623 1.6076 0.6918
-31.6261 75.9400 1.4359 0.7196
-15.6132 27.5716 0.5531 0.8809
-16.2746 22.0469 0.4783 0.8962
-16.2389 17.2045 0.4130 0.9097
-16.1180 13.4013 0.3659 0.9196
-16.1263 10.4045 0.3350 0.9261
-16.4982 8.0173 0.3202 0.9292
-23.3320 8.0363 0.4307 0.9060
-37.8353 8.1066 0.6754 0.8566
-54.8703 -22.6910 1.0364 0.7886
-32.5458 -18.3230 0.6519 0.8612
-30.9905 -22.7575 0.6711 0.8574
-24.5453 -23.0523 0.5878 0.8740
-19.1512 -22.9172 0.5213 0.8874
-19.1697 -29.5499 0.6148 0.8686
-19.4776 -39.8286 0.7739 0.8375
-19.5094 -56.1869 1.0382 0.7882
-19.6136 -90.4404 1.6153 0.6906
2.3465 -84.6338 1.4778 0.7127
21.2791 -77.1882 1.3976 0.7259
19.6605 -47.8797 0.9035 0.8130
19.5840 -34.9894 0.6999 0.8518
19.7147 -26.9877 0.5834 0.8748
23.7874 -25.4549 0.6081 0.8699
23.7090 -19.9135 0.5404 0.8835
41.9935 -27.3911 0.8751 0.8183
64.7550 -31.8678 1.2598 0.7492
67.6951 -23.6946 1.2519 0.7506
83.0509 2.0954 1.4501 0.7172
33.0874 4.8608 0.5837 0.8748
21.4902 5.8668 0.3888 0.9147
22.1540 9.0326 0.4176 0.9087
18.8198 10.4722 0.3759 0.9174
15.1461 11.0066 0.3268 0.9278
24.0297 22.3436 0.5727 0.8770
18.7927 22.2617 0.5085 0.8900
18.6368 28.4170 0.5932 0.8729
27.8862 79.0379 1.4630 0.7151
17.5047 78.8168 1.4093 0.7240
7.7687 79.0938 1.3872 0.7276
-2.0258 89.0985 1.5556 0.7001
-13.2664 91.8964 1.6207 0.6897
-23.7823 87.9778 1.5908 0.6945
-31.0003 76.5789 1.4421 0.7186
-16.2542 29.3827 0.5861 0.8743
-16.0984 22.2694 0.4796 0.8959
-16.1068 17.4091 0.4140 0.9095
-11.0993 9.4172 0.2541 0.9434
-16.1257 10.6333 0.3372 0.9256
-16.1329 8.0396 0.3146 0.9304
-22.8402 8.1225 0.4231 0.9076
-35.9187 8.0713 0.6426 0.8631
-58.6004 -23.5524 1.1024 0.7767
-41.8325 -23.0053 0.8333 0.8261
-31.6443 -22.7557 0.6804 0.8556
-24.7361 -22.7716 0.5869 0.8741
-19.4310 -22.7864 0.5227 0.8871
-19.1679 -28.9116 0.6055 0.8704
-19.5899 -39.0663 0.7628 0.8396
-20.1497 -56.2158 1.0424 0.7875
-19.4900 -85.7344 1.5347 0.7035
20.8777 -78.7903 1.4227 0.7217
19.6078 -49.1395 0.9235 0.8092
19.6935 -36.0227 0.7166 0.8485
19.6651 -27.4908 0.5900 0.8735
23.4686 -25.6211 0.6065 0.8702
23.5169 -20.1554 0.5406 0.8835
41.6531 -27.7650 0.8738 0.8185
65.3493 -32.9737 1.2777 0.7461
65.7194 -23.7412 1.2197 0.7561
35.6699 4.8774 0.6284 0.8659
22.0514 5.7844 0.3979 0.9128
19.5149 7.7305 0.3664 0.9195
22.1623 12.0444 0.4403 0.9040
18.6027 13.2372 0.3985 0.9127
18.3650 16.7383 0.4337 0.9054
18.6970 21.7055 0.5001 0.8917
18.7124 27.9213 0.5867 0.8742
28.7746 79.0354 1.4681 0.7143
18.5892 79.9262 1.4323 0.7202
8.5655 79.0916 1.3886 0.7274
-1.1420 89.4799 1.5620 0.6991
-11.4737 85.4981 1.5058 0.7081
-22.4874 86.6067 1.5618 0.6991
-30.7776 78.2636 1.4679 0.7143
-12.9533 23.9770 0.4757 0.8967
-16.0970 22.7416 0.4863 0.8945
-16.1059 17.7599 0.4185 0.9085
-11.0278 9.5472 0.2546 0.9433
-16.1251 10.8651 0.3394 0.9252
-16.1323 8.2411 0.3162 0.9301
-21.8925 8.0323 0.4070 0.9109
-34.2963 8.0668 0.6150 0.8685
-58.7874 -22.9495 1.1016 0.7769
-42.3184 -22.7260 0.8384 0.8252
-32.7014 -23.0247 0.6981 0.8521
-25.2348 -22.7702 0.5933 0.8729
-19.8257 -22.7853 0.5272 0.8862
-19.1982 -28.3399 0.5975 0.8720
-20.0919 -39.0897 0.7672 0.8388
-19.2322 -52.0172 0.9681 0.8010
-19.3134 -81.2033 1.4569 0.7161
20.2163 -79.4866 1.4316 0.7203
19.5037 -50.3309 0.9422 0.8058
19.6911 -36.8874 0.7299 0.8460
19.7115 -28.1446 0.5998 0.8716
23.2555 -25.9021 0.6076 0.8700
28.9837 -25.3464 0.6721 0.8572
64.7207 -44.0798 1.3668 0.7311
64.7507 -33.4858 1.2724 0.7470
64.7766 -24.1335 1.2066 0.7584
72.8547 9.2228 1.2818 0.7454
22.0516 5.5500 0.3969 0.9130
19.5393 7.5157 0.3654 0.9197
18.4087 9.7679 0.3638 0.9200
18.7743 13.0793 0.3994 0.9125
18.4076 16.4441 0.4308 0.9060
20.2576 23.0486 0.5356 0.8845
29.4960 43.0772 0.9113 0.8115
29.6691 79.0329 1.4735 0.7134
19.1642 78.8265 1.4160 0.7229
7.6204 64.3604 1.1313 0.7716
-0.2487 89.2652 1.5581 0.6997
-10.4902 84.5600 1.4873 0.7111
-17.7593 71.3113 1.2828 0.7453
-30.7686 80.5898 1.5057 0.7081
-16.0755 30.4789 0.6015 0.8712
-15.9489 23.0158 0.4888 0.8940
-16.1099 18.1244 0.4233 0.9075
-16.2197 14.3276 0.3778 0.9171
-16.1244 11.1000 0.3417 0.9247
-16.1318 8.4447 0.3178 0.9297
-21.0517 7.9628 0.3929 0.9139
-32.8354 8.0695 0.5902 0.8735
-92.9358 -0.0277 1.6222 0.6895
56.3880 -39.3167 -1.1999 0.7596
24.9291 -13.2406 -0.4927 0.8932
64.7744 -24.9451 -1.2116 0.7575
77.2419 -19.4735 -1.3904 0.7271
96.7115 -12.2826 -1.7017 0.6770
97.4868 -0.5544 -1.7017 0.6770
38.7163 4.4702 -0.6803 0.8556
22.1631 5.3202 -0.3978 0.9128
19.4864 7.2510 -0.3629 0.9202
18.6354 9.6277 -0.3661 0.9195
18.1217 12.3315 -0.3826 0.9160
18.0328 15.7570 -0.4180 0.9086
18.1089 20.1535 -0.4729 0.8973
18.2642 26.0558 -0.5554 0.8805
18.1738 34.0123 -0.6731 0.8570
30.5646 78.7804 -1.4750 0.7132
1.9199 7.5360 -0.1357 0.9694
8.3770 64.6699 -1.1382 0.7704
0.7163 87.5829 -1.5288 0.7044
-9.5486 84.5486 -1.4852 0.7115
-18.8115 79.2349 -1.4215 0.7220
-27.9973 75.8179 -1.4108 0.7237
-15.9891 31.1385 -0.6110 0.8693
-15.5911 23.0350 -0.4855 0.8947
-15.9413 18.3358 -0.4241 0.9074
-16.2189 14.6466 -0.3815 0.9163
-16.0809 11.3320 -0.3434 0.9243
-16.1312 8.6711 -0.3197 0.9294
-20.2374 7.9096 -0.3793 0.9167
-30.8264 7.9353 -0.5556 0.8804
-91.0782 12.0287 -1.6036 0.6924
-24.4439 0.2608 -0.4267 0.9068
-90.9120 -10.0379 -1.5965 0.6936
-90.8189 -21.3227 -1.6283 0.6885
-90.7171 -33.2424 -1.6864 0.6794
-46.8115 -23.8897 -0.9173 0.8104
-35.4532 -23.8677 -0.7460 0.8428
-26.3230 -22.7705 -0.6075 0.8700
-20.9214 -23.0515 -0.5434 0.8829
-19.4253 -27.4203 -0.5866 0.8742
-19.1862 -35.4803 -0.7041 0.8510
-19.8595 -50.4408 -0.9462 0.8050
-19.3281 -74.3167 -1.3403 0.7355
-11.8373 -87.9394 -1.5488 0.7012
-1.2833 -97.4799 -1.7017 0.6770
2.6644 -24.6950 -0.4336 0.9054
16.0262 -69.0322 -1.2370 0.7531
19.7043 -54.1898 -1.0065 0.7940
19.4371 -38.3223 -0.7500 0.8421
11.5555 -17.2574 -0.3625 0.9203
22.5564 -26.2073 -0.6036 0.8708
26.1071 -23.8137 -0.6168 0.8682
56.3288 -40.1159 -1.2071 0.7583
24.8846 -13.5368 -0.4945 0.8929
64.7723 -25.6887 -1.2163 0.7567
77.2281 -20.2910 -1.3938 0.7266
96.5843 -13.2460 -1.7017 0.6770
97.4764 -1.5263 -1.7017 0.6770
42.3980 4.4675 -0.7442 0.8432
22.3136 5.1216 -0.3996 0.9125
19.3523 6.9822 -0.3591 0.9210
18.6229 9.3872 -0.3640 0.9200
18.1756 12.1049 -0.3812 0.9163
18.1756 15.5650 -0.4177 0.9087
9.1091 9.9365 -0.2353 0.9475
18.2497 25.4907 -0.5472 0.8821
18.1596 33.1853 -0.6603 0.8596
31.4350 78.6881 -1.4790 0.7125
1.9828 7.4707 -0.1349 0.9696
9.0806 65.0081 -1.1457 0.7691
1.1669 64.2888 -1.1223 0.7732
-8.7434 85.0105 -1.4917 0.7104
-18.0749 79.6574 -1.4258 0.7212
-26.9899 75.3945 -1.3978 0.7259
-15.9953 31.9299 -0.6234 0.8669
-15.6155 23.5741 -0.4936 0.8930
-15.9403 18.7081 -0.4290 0.9064
-15.9954 14.7370 -0.3796 0.9167
-16.0753 11.5697 -0.3457 0.9238
-16.2073 8.9214 -0.3229 0.9287
-19.6984 7.9262 -0.3706 0.9186
-30.3350 8.1321 -0.5482 0.8819
-91.0848 12.9547 -1.6059 0.6921
-24.5017 0.5058 -0.4278 0.9066
-90.9190 -9.1222 -1.5950 0.6938
-90.8268 -20.3714 -1.6248 0.6891
-90.7260 -32.2234 -1.6805 0.6803
-46.8089 -23.3031 -0.9127 0.8112
-35.4491 -23.3547 -0.7410 0.8438
-27.1687 -23.0325 -0.6217 0.8672
-21.3357 -23.0420 -0.5481 0.8819
-19.7929 -27.3570 -0.5894 0.8736
-19.1839 -34.6460 -0.6913 0.8535
-19.4281 -47.9376 -0.9029 0.8131
-19.8389 -73.2740 -1.3250 0.7381
-11.8030 -81.5294 -1.4379 0.7192
-2.2550 -97.4622 -1.7017 0.6770
2.4045 -24.5813 -0.4311 0.9059
19.2113 -86.6649 -1.5495 0.7011
21.0774 -59.8164 -1.1070 0.7759
19.4344 -39.2830 -0.7650 0.8392
19.6508 -29.9896 -0.6258 0.8664
22.1044 -26.2061 -0.5984 0.8718
25.3816 -23.6198 -0.6052 0.8705
56.3161 -40.9591 -1.2155 0.7569
24.9131 -13.8759 -0.4978 0.8922
62.8608 -25.6587 -1.1853 0.7621
82.1881 -22.4725 -1.4873 0.7111
96.4474 -14.2083 -1.7017 0.6770
97.4563 -2.4980 -1.7017 0.6770
23.0166 2.1935 -0.4036 0.9117
22.6474 4.9611 -0.4047 0.9114
19.6473 6.8681 -0.3633 0.9201
18.6158 9.1521 -0.3621 0.9204
18.2568 11.8979 -0.3804 0.9165
18.0975 15.1880 -0.4124 0.9098
9.1410 9.7739 -0.2336 0.9479
18.2136 24.9117 -0.5387 0.8839
18.1405 32.3797 -0.6478 0.8620
32.3472 78.6855 -1.4850 0.7115
2.0665 7.4844 -0.1355 0.9694
9.8209 65.5321 -1.1566 0.7671
2.3816 84.6799 -1.4787 0.7125
-7.9310 85.4765 -1.4984 0.7093
-17.3337 80.0826 -1.4302 0.7205
-22.5725 65.0927 -1.2026 0.7591
-16.0017 32.7541 -0.6363 0.8643
-15.8625 24.4734 -0.5091 0.8899
-15.9392 19.0891 -0.4341 0.9053
-15.9876 15.0273 -0.3830 0.9160
-16.0696 11.8105 -0.3481 0.9233
-16.1295 9.0893 -0.3232 0.9286
-19.1832 7.9420 -0.3624 0.9203
-28.3367 7.9000 -0.5135 0.8890
-91.0914 13.8837 -1.6084 0.6917
-91.0102 2.7868 -1.5893 0.6947
-90.9255 -8.2080 -1.5936 0.6940
-90.8347 -19.4241 -1.6214 0.6896
-90.7347 -31.2114 -1.6749 0.6812
-47.2173 -22.9219 -0.9162 0.8106
-35.6940 -23.0091 -0.7413 0.8438
-35.5822 -29.5604 -0.8075 0.8311
-28.7348 -30.4188 -0.7304 0.8459
-20.2145 -27.3611 -0.5938 0.8728
-19.4622 -34.3364 -0.6889 0.8539
-19.2157 -46.0882 -0.8716 0.8189
-10.6240 -37.7434 -0.6844 0.8548
-13.5938 -87.7217 -1.5495 0.7011
-3.2267 -97.4349 -1.7017 0.6770
1.9983 -22.7698 -0.3990 0.9126
18.3462 -86.8522 -1.5495 0.7011
21.0720 -61.7586 -1.1390 0.7702
19.4814 -40.3860 -0.7827 0.8358
19.7081 -30.7412 -0.6374 0.8641
21.6600 -26.2048 -0.5934 0.8728
24.8781 -23.6184 -0.5988 0.8718
33.8498 -25.1390 -0.7360 0.8448
24.9990 -14.2522 -0.5023 0.8913
64.9590 -27.2739 -1.2297 0.7544
66.6376 -18.9366 -1.2092 0.7579
96.3009 -15.1691 -1.7017 0.6770
97.4266 -3.4694 -1.7017 0.6770
52.2106 4.4509 -0.9146 0.8109
23.0744 4.8140 -0.4114 0.9100
19.8025 6.7015 -0.3649 0.9198
18.5419 8.8873 -0.3589 0.9210
18.0173 11.4876 -0.3730 0.9181
18.2270 14.9894 -0.4119 0.9099
9.1719 9.6130 -0.2319 0.9482
18.1836 24.3573 -0.5306 0.8855
18.1599 31.6696 -0.6372 0.8641
33.2671 78.6830 -1.4911 0.7105
22.5689 78.6733 -1.4286 0.7208
12.6186 78.8304 -1.3935 0.7266
3.1160 81.7709 -1.4283 0.7208
-7.5929 91.7680 -1.6073 0.6919
-16.5879 80.5104 -1.4348 0.7197
-21.5616 64.2397 -1.1828 0.7625
-16.0084 33.6135 -0.6499 0.8616
-16.2646 25.6504 -0.5301 0.8856
-15.9381 19.4793 -0.4393 0.9042
-15.9795 15.3226 -0.3864 0.9152
-16.0638 12.0547 -0.3506 0.9228
-16.1252 9.2999 -0.3249 0.9282
-18.6900 7.9571 -0.3546 0.9219
-27.2282 7.8844 -0.4948 0.8928
-71.2920 11.5943 -1.2607 0.7490
-91.0170 3.6955 -1.5900 0.6946
-90.9327 -7.2955 -1.5923 0.6942
-90.8425 -18.4808 -1.6181 0.6901
-90.7434 -30.2061 -1.6694 0.6821
-47.9934 -22.7102 -0.9268 0.8086
-36.4300 -22.9726 -0.7518 0.8417
-29.7293 -24.2013 -0.6691 0.8578
-29.3125 -30.4172 -0.7373 0.8445
-20.6232 -27.3398 -0.5978 0.8720
-19.4437 -33.5202 -0.6764 0.8564
-19.4261 -45.3156 -0.8606 0.8210
-19.7463 -67.5617 -1.2286 0.7546
-14.4677 -87.5818 -1.5495 0.7011
-4.1978 -97.3979 -1.7017 0.6770
1.9380 -24.9346 -0.4365 0.9048
15.1345 -75.3551 -1.3416 0.7353
21.0663 -63.8164 -1.1730 0.7643
20.4287 -43.4516 -0.8381 0.8252
19.7062 -31.4235 -0.6474 0.8621
21.2228 -26.2036 -0.5886 0.8738
24.3851 -23.6170 -0.5925 0.8730
33.1515 -25.1371 -0.7262 0.8467
56.4084 -32.9083 -1.1399 0.7701
64.9568 -28.0379 -1.2349 0.7535
66.6503 -19.6603 -1.2129 0.7573
96.1449 -16.1285 -1.7017 0.6770
97.3871 -4.4406 -1.7017 0.6770
58.7231 4.4168 -1.0279 0.7901
23.4132 4.6417 -0.4166 0.9089
19.8037 6.4826 -0.3637 0.9200
18.7149 8.7419 -0.3605 0.9207
18.1259 11.3042 -0.3729 0.9181
18.1133 14.5957 -0.4060 0.9111
9.2538 9.5072 -0.2316 0.9483
18.2633 23.9619 -0.5259 0.8864
18.1568 30.9452 -0.6263 0.8663
34.1945 78.6804 -1.4975 0.7095
23.4579 78.8002 -1.4351 0.7197
11.0414 64.8288 -1.1479 0.7687
3.9433 81.9886 -1.4326 0.7201
-6.5559 90.1672 -1.5780 0.6965
-18.7219 95.6854 -1.7019 0.6770
-21.0329 64.7989 -1.1892 0.7614
-16.0155 34.5104 -0.6641 0.8588
-16.2630 26.2223 -0.5386 0.8839
-15.9370 19.8791 -0.4447 0.9031
-15.9713 15.6232 -0.3900 0.9145
-16.0578 12.3024 -0.3531 0.9223
-16.1208 9.5129 -0.3267 0.9279
-18.2177 7.9714 -0.3471 0.9235
-26.2191 7.8763 -0.4779 0.8963
-91.1047 15.7502 -1.6138 0.6908
-91.0238 4.6053 -1.5908 0.6945
-90.9398 -6.3842 -1.5913 0.6944
-90.8502 -17.5408 -1.6151 0.6906
-90.7520 -29.2071 -1.6641 0.6829
-49.7071 -22.9175 -0.9554 0.8033
-36.8725 -22.7411 -0.7562 0.8409
-29.7512 -23.7299 -0.6643 0.8588
-23.7168 -24.1245 -0.5905 0.8734
-26.0033 -33.7665 -0.7439 0.8432
-19.8042 -33.3706 -0.6773 0.8562
-19.7035 -44.7258 -0.8531 0.8224
-19.2643 -63.5527 -1.1592 0.7667
-7.4927 -42.7057 -0.7568 0.8408
-5.1685 -97.3512 -1.7017 0.6770
3.4592 -51.0970 -0.8939 0.8147
16.6108 -87.2008 -1.5495 0.7011
9.0861 -28.4754 -0.5217 0.8873
20.1122 -43.9103 -0.8430 0.8243
19.7043 -32.1276 -0.6579 0.8600
12.6218 -15.9057 -0.3544 0.9220
23.9808 -23.6932 -0.5884 0.8738
32.4714 -25.1352 -0.7168 0.8485
41.0390 -24.4936 -0.8342 0.8260
64.7637 -28.7240 -1.2366 0.7532
77.7326 -23.7743 -1.4189 0.7224
95.9793 -17.0862 -1.7017 0.6770
97.3380 -5.4112 -1.7017 0.6770
65.2588 4.2546 -1.1415 0.7698
24.1326 4.5347 -0.4286 0.9064
19.7796 6.2571 -0.3621 0.9204
18.7379 8.5261 -0.3593 0.9209
18.0105 10.9844 -0.3682 0.9191
18.1284 14.3121 -0.4032 0.9117
9.4239 9.4908 -0.2335 0.9479
18.2620 23.4712 -0.5191 0.8878
18.1625 30.2596 -0.6160 0.8683
35.1301 78.6778 -1.5040 0.7084
24.3151 78.7978 -1.4394 0.7190
11.7040 64.8089 -1.1495 0.7684
2.3297 40.1029 -0.7012 0.8515
-5.6179 89.6083 -1.5672 0.6982
-17.7672 95.8673 -1.7019 0.6770
-23.9277 76.3000 -1.3958 0.7262
-16.0229 35.4481 -0.6790 0.8559
-16.0296 26.4309 -0.5396 0.8837
-15.9359 20.2890 -0.4503 0.9019
-15.9628 15.9295 -0.3936 0.9137
-16.0517 12.5536 -0.3557 0.9217
-16.1164 9.7281 -0.3286 0.9275
-17.7645 7.9851 -0.3400 0.9250
-25.2925 7.8737 -0.4624 0.8994
-44.1628 8.0892 -0.7837 0.8356
-91.0306 5.5159 -1.5919 0.6943
-90.9469 -5.4742 -1.5903 0.6945
-90.8579 -16.6046 -1.6122 0.6911
-90.7606 -28.2146 -1.6590 0.6837
-52.5321 -23.5875 -1.0051 0.7942
-37.7053 -22.7388 -0.7685 0.8385
-29.7328 -23.2341 -0.6586 0.8599
-23.7380 -23.6693 -0.5851 0.8745
-19.4225 -24.7074 -0.5486 0.8819
-12.3599 -20.3615 -0.4158 0.9091
-20.2430 -44.7360 -0.8571 0.8216
-19.4642 -61.9792 -1.1339 0.7711
-7.8851 -42.4513 -0.7537 0.8414
-6.1389 -97.2948 -1.7017 0.6770
2.5142 -43.5814 -0.7620 0.8398
17.2869 -95.9434 -1.7017 0.6770
21.0537 -68.3259 -1.2480 0.7512
19.7097 -44.1898 -0.8446 0.8240
19.7023 -32.8547 -0.6687 0.8579
12.3151 -15.8409 -0.3502 0.9229
23.9795 -24.1691 -0.5943 0.8727
30.8031 -24.3388 -0.6853 0.8547
33.1686 -20.2475 -0.6783 0.8560
57.1898 -26.0502 -1.0969 0.7777
75.0251 -23.7668 -1.3737 0.7299
94.3074 -17.7604 -1.6751 0.6812
97.2792 -6.3814 -1.7017 0.6770
76.0264 4.1959 -1.3291 0.7374
25.1647 4.4694 -0.4461 0.9028
20.1786 6.1627 -0.3683 0.9191
18.9068 8.3764 -0.3610 0.9206
18.0500 10.7631 -0.3668 0.9194
18.2109 14.0849 -0.4019 0.9120
9.6093 9.4865 -0.2357 0.9474
18.1314 22.8300 -0.5089 0.8899
18.1637 29.5890 -0.6060 0.8703
39.3263 85.7682 -1.6470 0.6856
25.1775 78.7954 -1.4439 0.7183
12.3687 64.7889 -1.1513 0.7681
5.5340 81.2580 -1.4216 0.7219
-4.7219 89.6163 -1.5664 0.6984
-16.4381 93.9127 -1.6642 0.6829
-24.1235 79.6981 -1.4535 0.7167
-16.0307 36.4284 -0.6947 0.8528
-15.8562 26.7426 -0.5427 0.8830
-15.9347 20.7091 -0.4561 0.9007
-15.9540 16.2413 -0.3974 0.9129
-16.0454 12.8085 -0.3584 0.9211
-16.1117 9.9458 -0.3305 0.9270
-17.3294 7.9982 -0.3331 0.9265
-24.4239 7.8713 -0.4479 0.9024
-41.7719 8.0825 -0.7427 0.8435
-40.8798 2.8864 -0.7153 0.8488
-90.9540 -4.5650 -1.5896 0.6947
-90.8655 -15.6714 -1.6095 0.6915
-90.7690 -27.2278 -1.6541 0.6845
-52.5022 -22.9481 -1.0001 0.7951
-41.0892 -24.2244 -0.8326 0.8263
-30.0810 -23.0268 -0.6613 0.8594
-23.7124 -23.1771 -0.5788 0.8758
-19.1539 -23.8722 -0.5342 0.8848
-18.3520 -29.5644 -0.6074 0.8700
-19.2025 -41.3343 -0.7956 0.8333
-20.1092 -61.8681 -1.1355 0.7709
-8.3154 -42.4086 -0.7543 0.8412
-7.1087 -97.2288 -1.7017 0.6770
2.0838 -43.6934 -0.7635 0.8395
16.3294 -96.1110 -1.7017 0.6770
21.5578 -72.5235 -1.3206 0.7388
19.4193 -44.7322 -0.8512 0.8228
19.7002 -33.6064 -0.6800 0.8557
12.0811 -15.8639 -0.3481 0.9233
24.4737 -25.1641 -0.6127 0.8690
30.5432 -24.6319 -0.6849 0.8547
33.1901 -20.7175 -0.6829 0.8551
64.9092 -30.3512 -1.2507 0.7508
70.7372 -23.1871 -1.2994 0.7424
89.3365 -17.7484 -1.5898 0.6946
97.2108 -7.3511 -1.7017 0.6770
88.6782 4.0076 -1.5495 0.7011
27.0349 4.5240 -0.4785 0.8961
20.5581 6.0552 -0.3741 0.9178
19.1279 8.2473 -0.3636 0.9200
18.3254 10.6811 -0.3702 0.9186
18.0408 13.6680 -0.3951 0.9134
18.1972 17.6099 -0.4420 0.9037
18.1502 22.3915 -0.5031 0.8911
18.1217 28.8711 -0.5950 0.8725
39.7122 84.3799 -1.6278 0.6886
26.0236 78.7283 -1.4473 0.7177
15.8507 78.7566 -1.4022 0.7251
6.1552 78.7836 -1.3794 0.7290
-3.7992 88.9817 -1.5546 0.7003
-15.2746 92.6988 -1.6399 0.6867
-18.6451 63.8893 -1.1617 0.7662
-16.0390 37.4557 -0.7112 0.8496
-15.7436 27.1665 -0.5481 0.8820
-15.9335 21.1403 -0.4621 0.8995
-15.9450 16.5592 -0.4013 0.9121
-16.0389 13.0672 -0.3611 0.9206
-16.1070 10.1660 -0.3325 0.9266
-16.9115 8.0107 -0.3266 0.9279
-23.6084 7.8691 -0.4344 0.9052
-40.1384 8.1823 -0.7150 0.8488
-91.0441 7.3414 -1.5943 0.6939
-90.9611 -3.6566 -1.5890 0.6948
-90.8731 -14.7412 -1.6069 0.6919
-60.8428 -17.5916 -1.1055 0.7762
-53.5566 -22.7757 -1.0158 0.7923
-41.1113 -23.6882 -0.8282 0.8271
-30.7211 -23.0346 -0.6702 0.8576
-24.0474 -23.0403 -0.5813 0.8753
-19.1526 -23.3889 -0.5277 0.8861
-18.4686 -29.1006 -0.6016 0.8712
-19.1995 -40.2726 -0.7788 0.8365
-19.2468 -57.2671 -1.0546 0.7853
-8.7581 -42.4223 -0.7561 0.8409
-8.0774 -97.1531 -1.7017 0.6770
2.4081 -63.8705 -1.1156 0.7744
15.3703 -96.2690 -1.7017 0.6770
21.0890 -73.6265 -1.3368 0.7361
19.4158 -45.9738 -0.8711 0.8190
19.6980 -34.3841 -0.6917 0.8534
11.8868 -15.9359 -0.3470 0.9235
24.2208 -25.4061 -0.6127 0.8690
29.5823 -24.3477 -0.6688 0.8579
56.1809 -35.8518 -1.1633 0.7660
26.6873 -12.8046 -0.5167 0.8883
67.1381 -22.7508 -1.2374 0.7531
86.8904 -18.1645 -1.5495 0.7011
97.1327 -8.3196 -1.7017 0.6770
62.9180 2.2154 -1.0989 0.7773
28.3038 4.4467 -0.5001 0.8917
20.5527 5.8316 -0.3729 0.9181
19.2551 8.0754 -0.3645 0.9199
18.1069 10.3132 -0.3637 0.9200
18.1731 13.4852 -0.3950 0.9134
18.1688 17.2349 -0.4371 0.9047
18.1491 21.9394 -0.4970 0.8923
18.0977 28.2043 -0.5849 0.8745
14.9720 31.0060 -0.6011 0.8713
26.9186 78.7906 -1.4533 0.7167
16.6823 78.8191 -1.4063 0.7245
6.9513 78.8461 -1.3816 0.7286
-2.8910 88.3678 -1.5433 0.7021
-14.2342 92.0996 -1.6267 0.6888
-24.8004 88.2433 -1.6000 0.6930
-26.8748 64.5314 -1.2202 0.7560
-15.6132 27.5716 -0.5531 0.8809
-15.9323 21.5831 -0.4683 0.8982
-15.9403 16.8881 -0.4054 0.9113
-16.0322 13.3299 -0.3639 0.9200
-16.1022 10.3889 -0.3345 0.9262
-16.4982 8.0173 -0.3202 0.9292
-22.8403 7.8669 -0.4217 0.9079
-37.4531 8.0247 -0.6686 0.8579
-91.0508 8.2561 -1.5958 0.6937
-24.5481 -0.7418 -0.4287 0.9064
-90.8806 -13.8143 -1.6045 0.6923
-90.7856 -25.2709 -1.6449 0.6859
-54.8703 -22.6910 -1.0364 0.7886
-32.5374 -18.3183 -0.6518 0.8612
-30.9905 -22.7575 -0.6711 0.8574
-24.5415 -23.0487 -0.5877 0.8740
-19.1512 -22.9172 -0.5213 0.8874
-19.1697 -29.5499 -0.6148 0.8686
-19.4727 -39.8186 -0.7737 0.8375
-19.4911 -56.1342 -1.0372 0.7884
-9.2130 -42.4823 -0.7588 0.8404
-9.0457 -97.0677 -1.7017 0.6770
1.7720 -63.9143 -1.1161 0.7743
14.4101 -96.4174 -1.7017 0.6770
15.1133 -54.8221 -0.9926 0.7965
19.4122 -47.2750 -0.8920 0.8151
19.5560 -34.9393 -0.6989 0.8520
11.7175 -16.0402 -0.3467 0.9236
23.7874 -25.4549 -0.6081 0.8699
23.8321 -20.0169 -0.5432 0.8829
56.3552 -36.7589 -1.1744 0.7640
26.0116 -12.8010 -0.5060 0.8905
67.8449 -23.7470 -1.2547 0.7501
86.7050 -19.0299 -1.5495 0.7011
97.0449 -9.2877 -1.7017 0.6770
82.8982 2.0916 -1.4474 0.7177
30.5358 4.4859 -0.5387 0.8838
20.9228 5.7119 -0.3786 0.9169
19.0806 7.7795 -0.3597 0.9209
18.2384 10.1486 -0.3643 0.9199
15.1427 11.0041 -0.3267 0.9278
18.0967 16.8269 -0.4313 0.9059
18.2469 21.6151 -0.4938 0.8930
18.1942 27.7423 -0.5791 0.8757
41.5954 83.9922 -1.6360 0.6873
27.7980 78.7882 -1.4583 0.7159
17.3604 78.1670 -1.3976 0.7259
7.7314 78.7146 -1.3806 0.7288
-2.0206 88.8671 -1.5516 0.7007
-12.5888 87.2025 -1.5379 0.7029
-23.7450 87.8398 -1.5883 0.6949
-26.8867 66.4173 -1.2507 0.7508
-15.9719 28.8723 -0.5759 0.8763
-15.9310 22.0379 -0.4747 0.8969
-15.9393 17.2280 -0.4097 0.9104
-11.0991 9.4171 -0.2541 0.9434
-16.0972 10.6145 -0.3366 0.9258
-16.1329 8.0396 -0.3146 0.9304
-22.1158 7.8649 -0.4097 0.9104
-35.6170 8.0035 -0.6372 0.8641
-91.0575 9.1729 -1.5974 0.6934
-24.4732 -0.4954 -0.4273 0.9067
-90.8881 -12.8896 -1.6023 0.6926
-90.7939 -24.3008 -1.6406 0.6866
-58.5441 -23.5298 -1.1013 0.7769
-41.7152 -22.9408 -0.8310 0.8266
-31.6443 -22.7557 -0.6803 0.8556
-24.7361 -22.7716 -0.5869 0.8741
-19.4310 -22.7864 -0.5227 0.8871
-19.1679 -28.9116 -0.6055 0.8704
-19.5913 -39.0691 -0.7629 0.8396
-18.6596 -52.0584 -0.9653 0.8015
-19.4900 -85.7344 -1.5347 0.7035
-9.8772 -95.6567 -1.6786 0.6806
0.9076 -51.1359 -0.8927 0.8150
13.4480 -96.5563 -1.7017 0.6770
21.0231 -79.3390 -1.4327 0.7201
19.4084 -48.6398 -0.9141 0.8110
19.1635 -35.0534 -0.6973 0.8523
11.6135 -16.2351 -0.3484 0.9232
23.4686 -25.6211 -0.6065 0.8702
23.5520 -20.1856 -0.5414 0.8833
37.4731 -24.9788 -0.7861 0.8351
25.3900 -12.8112 -0.4964 0.8925
65.7193 -23.7412 -1.2197 0.7561
86.5109 -19.8935 -1.5495 0.7011
96.9475 -10.2548 -1.7017 0.6770
88.7584 1.3540 -1.5495 0.7011
32.7595 4.4794 -0.5771 0.8761
21.2964 5.5863 -0.3843 0.9157
19.4193 7.6927 -0.3646 0.9198
18.3695 9.9831 -0.3649 0.9198
18.1646 12.9254 -0.3891 0.9147
18.1958 16.5840 -0.4297 0.9062
18.1301 21.0474 -0.4849 0.8948
18.1466 27.0770 -0.5690 0.8777
18.7443 36.9196 -0.7227 0.8473
28.6837 78.7857 -1.4635 0.7150
18.1795 78.1648 -1.4008 0.7254
8.5384 78.8417 -1.3842 0.7281
-1.1406 89.3719 -1.5601 0.6994
-11.4318 85.1856 -1.5002 0.7090
-17.8679 68.8153 -1.2410 0.7524
-32.1614 81.7825 -1.5339 0.7036
-12.9533 23.9770 -0.4757 0.8967
-15.9297 22.5052 -0.4813 0.8956
-15.9383 17.5752 -0.4141 0.9094
-11.0274 9.5469 -0.2546 0.9433
-16.0921 10.8429 -0.3387 0.9253
-16.1323 8.2411 -0.3162 0.9301
-21.4552 7.8718 -0.3989 0.9126
-33.9246 7.9794 -0.6083 0.8699
-91.0642 10.0917 -1.5993 0.6931
-24.4341 -0.2509 -0.4265 0.9069
-90.8955 -11.9674 -1.6003 0.6930
-90.8020 -23.3353 -1.6364 0.6872
-58.6210 -22.8845 -1.0984 0.7774
-42.3184 -22.7260 -0.8384 0.8252
-32.6955 -23.0206 -0.6980 0.8522
-25.2348 -22.7702 -0.5933 0.8729
-19.8257 -22.7853 -0.5272 0.8862
-19.1982 -28.3399 -0.5975 0.8720
-20.0931 -39.0922 -0.7672 0.8388
-19.2322 -52.0172 -0.9680 0.8010
-19.3134 -81.2033 -1.4569 0.7161
-9.9974 -88.2040 -1.5495 0.7011
0.6937 -89.2026 -1.5571 0.6999
12.4846 -96.6856 -1.7017 0.6770
21.0140 -82.6232 -1.4881 0.7110
19.4541 -50.2028 -0.9398 0.8062
18.8788 -35.3657 -0.6998 0.8518
11.5798 -16.5339 -0.3523 0.9224
23.2555 -25.9021 -0.6076 0.8700
27.2346 -23.8168 -0.6315 0.8652
56.2671 -38.3222 -1.1883 0.7616
25.0118 -12.9348 -0.4915 0.8935
64.7766 -24.1335 -1.2066 0.7584
86.3082 -20.7551 -1.5495 0.7011
96.8404 -11.2209 -1.7017 0.6770
97.4870 0.5151 -1.7017 0.6770
35.3547 4.4756 -0.6220 0.8671
21.6068 5.4381 -0.3889 0.9147
19.3840 7.4560 -0.3625 0.9203
18.2629 9.6906 -0.3609 0.9206
18.2721 12.7294 -0.3887 0.9148
18.1442 16.2088 -0.4247 0.9073
18.2381 20.7508 -0.4822 0.8954
18.1197 26.4627 -0.5598 0.8796
18.2314 35.0396 -0.6895 0.8538
29.5753 78.7832 -1.4689 0.7142
19.0028 78.1625 -1.4041 0.7248
7.6401 64.5274 -1.1342 0.7711
-0.1788 64.1586 -1.1199 0.7736
-10.4263 84.0451 -1.4782 0.7126
-17.7458 71.2573 -1.2818 0.7454
-32.6289 85.4623 -1.5968 0.6935
-15.9827 30.3029 -0.5980 0.8719
-15.9292 22.9873 -0.4882 0.8941
-15.9374 17.9303 -0.4187 0.9085
-16.2197 14.3276 -0.3778 0.9171
-16.0868 11.0741 -0.3409 0.9248
-16.1318 8.4447 -0.3178 0.9297
-20.8601 7.8904 -0.3893 0.9146
-32.3791 7.9573 -0.5820 0.8751
-91.0708 11.0127 -1.6012 0.6928
-24.4130 -0.0073 -0.4261 0.9070
-90.9031 -11.0475 -1.5984 0.6933
-90.8101 -22.3746 -1.6325 0.6879
24.9374 -17.3877 -1.5932 0.8854
23.7418 -12.6100 -1.4089 0.8979
30.3003 -11.6689 -1.7017 0.8780
31.4844 -7.9375 -1.7017 0.8780
32.2108 -4.0908 -1.7017 0.8780
32.4690 -0.1846 -1.7017 0.8780
29.3703 3.3911 -1.5495 0.8883
21.7978 5.2325 -1.1748 0.9141
19.2349 7.1574 -1.0756 0.9211
18.2179 9.4121 -1.0746 0.9211
17.7155 12.0551 -1.1230 0.9178
9.2118 8.0492 -0.6411 0.9522
8.5059 9.4663 -0.6670 0.9503
16.9703 24.2099 -1.5495 0.8883
14.5392 27.2101 -1.6168 0.8838
11.7444 30.2712 -1.7017 0.8780
1.9137 7.5118 -0.4063 0.9694
4.1711 32.2005 -1.7017 0.8780
0.2656 32.4685 -1.7017 0.8780
-3.6438 32.2644 -1.7017 0.8780
-7.5003 31.5914 -1.7017 0.8780
-10.2416 27.7348 -1.5495 0.8883
-13.5050 26.3007 -1.5495 0.8883
-10.2716 15.1758 -0.9604 0.9292
-16.1088 18.5284 -1.2867 0.9063
-16.2189 14.6466 -1.1453 0.9162
-16.1237 11.3622 -1.0337 0.9240
-16.1312 8.6711 -0.9598 0.9293
-20.5417 8.0285 -1.1558 0.9154
-28.6320 7.3704 -1.5495 0.8883
-20.7753 2.7438 -1.0982 0.9195
-22.6550 0.2418 -1.1874 0.9132
-32.2734 -3.5634 -1.7017 0.8780
-31.6100 -7.4215 -1.7017 0.8780
-30.4871 -11.1717 -1.7017 0.8780
-28.9211 -14.7595 -1.7017 0.8780
-25.4063 -17.1039 -1.6051 0.8845
-22.3602 -19.3425 -1.5495 0.8883
-19.8699 -21.8928 -1.5495 0.8883
-17.0908 -24.1250 -1.5495 0.8883
-14.0632 -26.0065 -1.5495 0.8883
-10.8312 -27.5100 -1.5495 0.8883
-8.1727 -31.4242 -1.7017 0.8780
-4.3316 -32.1793 -1.7017 0.8780
-0.1095 -8.3146 -0.4358 0.9672
0.8979 -8.3222 -0.4387 0.9670
7.3427 -31.6284 -1.7017 0.8780
11.0957 -30.5149 -1.7017 0.8780
14.5269 -28.6414 -1.6831 0.8793
11.3039 -16.8816 -1.0647 0.9218
19.2867 -22.4084 -1.5495 0.8883
21.8433 -19.9245 -1.5495 0.8883
24.4166 -17.3889 -1.5710 0.8869
23.5042 -12.7859 -1.4023 0.8984
30.1825 -11.9704 -1.7017 0.8780
31.4037 -8.2511 -1.7017 0.8780
32.1684 -4.4117 -1.7017 0.8780
32.4656 -0.5083 -1.7017 0.8780
29.4026 3.0981 -1.5495 0.8883
22.1722 5.0892 -1.1922 0.9129
19.3193 6.9703 -1.0764 0.9210
18.3020 9.2255 -1.0741 0.9212
17.7138 11.7973 -1.1154 0.9183
9.3403 7.9987 -0.6445 0.9519
8.5104 9.2835 -0.6600 0.9508
17.2108 24.0395 -1.5495 0.8883
14.5445 26.5792 -1.5879 0.8857
12.0456 30.1525 -1.7017 0.8780
1.9828 7.4706 -0.4051 0.9695
4.4919 32.1573 -1.7017 0.8780
0.5892 32.4642 -1.7017 0.8780
-3.3220 32.2992 -1.7017 0.8780
-7.1849 31.6646 -1.7017 0.8780
-9.9646 27.8356 -1.5495 0.8883
-13.2421 26.4341 -1.5495 0.8883
-15.6156 23.5741 -1.4819 0.8929
-16.1077 18.9046 -1.3016 0.9053
-16.1140 14.8462 -1.1483 0.9160
-16.1230 11.6040 -1.0411 0.9235
-16.1306 8.8792 -0.9650 0.9289
-19.9486 8.0269 -1.1269 0.9175
-28.5571 7.6555 -1.5495 0.8883
-20.7569 2.9522 -1.0988 0.9195
-22.6960 0.4685 -1.1897 0.9131
-32.3073 -3.2415 -1.7017 0.8780
-31.6824 -7.1060 -1.7017 0.8780
-30.5970 -10.8672 -1.7017 0.8780
-29.0668 -14.4705 -1.7017 0.8780
-25.9496 -17.0962 -1.6286 0.8830
-22.5520 -19.1186 -1.5495 0.8883
-20.0872 -21.6937 -1.5495 0.8883
-17.3304 -23.9535 -1.5495 0.8883
-14.3218 -25.8650 -1.5495 0.8883
-11.1049 -27.4006 -1.5495 0.8883
-8.4856 -31.3411 -1.7017 0.8780
-4.6521 -32.1345 -1.7017 0.8780
-0.1925 -8.3199 -0.4361 0.9672
0.8137 -8.3184 -0.4380 0.9671
1.9276 -8.6957 -0.4668 0.9650
10.7909 -30.6240 -1.7017 0.8780
14.3575 -29.0209 -1.6969 0.8784
11.3050 -17.2529 -1.0810 0.9207
12.6679 -15.0186 -1.0297 0.9243
21.6436 -20.1412 -1.5495 0.8883
23.9180 -17.3958 -1.5500 0.8883
23.3827 -13.0235 -1.4027 0.8983
30.0616 -12.2707 -1.7017 0.8780
31.3199 -8.5637 -1.7017 0.8780
32.1229 -4.7322 -1.7017 0.8780
32.4589 -0.8320 -1.7017 0.8780
22.9233 2.1846 -1.2068 0.9119
22.5579 4.9415 -1.2102 0.9117
19.4038 6.7830 -1.0772 0.9210
18.3861 9.0392 -1.0737 0.9212
17.7121 11.5430 -1.1080 0.9188
9.5892 8.0475 -0.6561 0.9511
8.5144 9.1039 -0.6533 0.9513
17.4496 23.8668 -1.5495 0.8883
14.5497 25.9703 -1.5601 0.8876
12.3456 30.0310 -1.7017 0.8780
2.0665 7.4843 -0.4069 0.9694
4.8123 32.1110 -1.7017 0.8780
0.9129 32.4567 -1.7017 0.8780
-2.9998 32.3307 -1.7017 0.8780
-6.8689 31.7347 -1.7017 0.8780
-9.8950 28.5343 -1.5828 0.8861
-12.9779 26.5648 -1.5495 0.8883
-15.7010 24.2241 -1.5129 0.8908
-16.1066 19.2897 -1.3170 0.9042
-16.1132 15.1453 -1.1589 0.9152
-16.1223 11.8492 -1.0486 0.9230
-16.1300 9.0896 -0.9703 0.9285
-19.3843 8.0253 -1.0995 0.9194
-28.4793 7.9398 -1.5495 0.8883
-29.2279 4.4548 -1.5495 0.8883
-22.8086 0.6984 -1.1959 0.9127
-32.3381 -2.9192 -1.7017 0.8780
-31.7517 -6.7898 -1.7017 0.8780
-30.7038 -10.5616 -1.7017 0.8780
-29.2096 -14.1800 -1.7017 0.8780
-26.5083 -17.0878 -1.6529 0.8813
-22.7415 -18.8928 -1.5495 0.8883
-20.3025 -21.4924 -1.5495 0.8883
-17.5684 -23.7795 -1.5495 0.8883
-14.5789 -25.7210 -1.5495 0.8883
-11.3775 -27.2885 -1.5495 0.8883
-8.7976 -31.2550 -1.7017 0.8780
-4.9723 -32.0866 -1.7017 0.8780
-0.2757 -8.3251 -0.4365 0.9672
0.7297 -8.3146 -0.4374 0.9671
1.7936 -8.4911 -0.4548 0.9658
10.4851 -30.7300 -1.7017 0.8780
14.1032 -29.2367 -1.7012 0.8781
11.3178 -17.6538 -1.0990 0.9194
12.3858 -14.9846 -1.0188 0.9251
21.4417 -20.3560 -1.5495 0.8883
23.7356 -17.6277 -1.5495 0.8883
23.3254 -13.2980 -1.4071 0.8980
29.9378 -12.5698 -1.7017 0.8780
31.2329 -8.8755 -1.7017 0.8780
32.0741 -5.0522 -1.7017 0.8780
32.4490 -1.1555 -1.7017 0.8780
29.4585 2.5113 -1.5495 0.8883
22.9556 4.7893 -1.2290 0.9103
19.4885 6.5953 -1.0782 0.9209
18.4701 8.8529 -1.0734 0.9212
17.7105 11.2919 -1.1008 0.9193
9.8084 8.0662 -0.6655 0.9504
8.5222 8.9321 -0.6470 0.9518
17.6867 23.6917 -1.5495 0.8883
14.7070 25.6480 -1.5495 0.8883
12.6444 29.9064 -1.7017 0.8780
8.9534 31.2107 -1.7017 0.8780
5.1322 32.0614 -1.7017 0.8780
1.2364 32.4460 -1.7017 0.8780
-2.6774 32.3590 -1.7017 0.8780
-6.5522 31.8016 -1.7017 0.8780
-9.8865 29.4555 -1.6283 0.8830
-12.7124 26.6928 -1.5495 0.8883
-15.8324 24.9689 -1.5495 0.8883
-16.1055 19.6840 -1.3329 0.9031
-16.1123 15.4499 -1.1699 0.9145
-16.1216 12.0981 -1.0563 0.9224
-15.3616 8.8595 -0.9294 0.9314
-18.8468 8.0238 -1.0735 0.9212
-27.7956 8.0487 -1.5165 0.8906
-29.1820 4.7459 -1.5495 0.8883
-32.4428 1.3172 -1.7017 0.8780
-32.3656 -2.5967 -1.7017 0.8780
-31.8178 -6.4729 -1.7017 0.8780
-30.8076 -10.2550 -1.7017 0.8780
-29.3495 -13.8880 -1.7017 0.8780
-27.0832 -17.0786 -1.6780 0.8796
-22.9287 -18.6652 -1.5495 0.8883
-20.5157 -21.2889 -1.5495 0.8883
-17.8046 -23.6032 -1.5495 0.8883
-14.8346 -25.5743 -1.5495 0.8883
-11.6490 -27.1738 -1.5495 0.8883
-9.1088 -31.1657 -1.7017 0.8780
-5.2919 -32.0354 -1.7017 0.8780
-0.3590 -8.3303 -0.4370 0.9672
0.6459 -8.3107 -0.4369 0.9672
1.6921 -8.4251 -0.4504 0.9662
10.1782 -30.8330 -1.7017 0.8780
13.8149 -29.3840 -1.7017 0.8780
11.3265 -18.0612 -1.1173 0.9182
12.1372 -14.9857 -1.0106 0.9257
21.2377 -20.5687 -1.5495 0.8883
23.5587 -17.8632 -1.5495 0.8883
23.3026 -13.5946 -1.4139 0.8976
29.8110 -12.8676 -1.7017 0.8780
31.1429 -9.1865 -1.7017 0.8780
32.0221 -5.3718 -1.7017 0.8780
32.4358 -1.4790 -1.7017 0.8780
29.4821 2.2175 -1.5495 0.8883
23.3657 4.6322 -1.2484 0.9090
19.5733 6.4072 -1.0794 0.9208
18.5541 8.6668 -1.0732 0.9212
17.7088 11.0441 -1.0938 0.9198
10.0728 8.1166 -0.6779 0.9495
8.5344 8.7681 -0.6413 0.9522
8.5825 11.2604 -0.7420 0.9449
14.9619 25.5001 -1.5495 0.8883
12.9419 29.7788 -1.7017 0.8780
9.2640 31.1199 -1.7017 0.8780
5.4516 32.0086 -1.7017 0.8780
1.5598 32.4320 -1.7017 0.8780
-2.3546 32.3841 -1.7017 0.8780
-6.2348 31.8653 -1.7017 0.8780
-9.8776 30.4311 -1.6767 0.8797
-12.4457 26.8182 -1.5495 0.8883
-15.5827 25.1255 -1.5495 0.8883
-16.1044 20.0880 -1.3493 0.9020
-16.1115 15.7604 -1.1812 0.9137
-16.1209 12.3507 -1.0643 0.9219
-15.2605 9.0052 -0.9286 0.9315
-18.3342 8.0224 -1.0488 0.9230
-26.7836 8.0459 -1.4656 0.8940
-29.1332 5.0366 -1.5495 0.8883
-32.3541 1.6369 -1.6978 0.8783
-32.3898 -2.2739 -1.7017 0.8780
-31.8808 -6.1553 -1.7017 0.8780
-30.9083 -9.9473 -1.7017 0.8780
-29.4865 -13.5948 -1.7017 0.8780
-27.5367 -16.9833 -1.6955 0.8785
-23.1136 -18.4357 -1.5495 0.8883
-20.7270 -21.0833 -1.5495 0.8883
-18.0390 -23.4245 -1.5495 0.8883
-12.1108 -20.4070 -1.2436 0.9093
-11.9194 -27.0563 -1.5495 0.8883
-9.4191 -31.0733 -1.7017 0.8780
-5.6110 -31.9811 -1.7017 0.8780
-0.4524 -8.5210 -0.4472 0.9664
0.5626 -8.3109 -0.4366 0.9672
1.6003 -8.4011 -0.4482 0.9663
9.0817 -28.4617 -1.5657 0.8872
13.5212 -29.5203 -1.7017 0.8780
11.3245 -18.4644 -1.1352 0.9169
11.9056 -15.0031 -1.0038 0.9262
21.0316 -20.7794 -1.5495 0.8883
23.3794 -18.0973 -1.5495 0.8883
23.3365 -13.9281 -1.4243 0.8969
29.6812 -13.1642 -1.7017 0.8780
31.0498 -9.4965 -1.7017 0.8780
31.9670 -5.6907 -1.7017 0.8780
32.4195 -1.8023 -1.7017 0.8780
29.5028 1.9235 -1.5495 0.8883
23.7891 4.4701 -1.2686 0.9076
19.6583 6.2188 -1.0806 0.9207
18.6380 8.4807 -1.0731 0.9213
17.7072 10.7995 -1.0870 0.9203
17.7282 13.9962 -1.1837 0.9135
8.3762 8.4357 -0.6230 0.9535
8.5055 10.9317 -0.7259 0.9460
15.2154 25.3496 -1.5495 0.8883
13.2382 29.6483 -1.7017 0.8780
9.5739 31.0260 -1.7017 0.8780
5.7704 31.9527 -1.7017 0.8780
1.8831 32.4149 -1.7017 0.8780
-2.0317 32.4059 -1.7017 0.8780
-5.9168 31.9259 -1.7017 0.8780
-9.6902 30.8999 -1.6972 0.8783
-12.1776 26.9410 -1.5495 0.8883
-15.3314 25.2797 -1.5495 0.8883
-16.1033 20.5021 -1.3663 0.9008
-16.1106 16.0770 -1.1928 0.9129
-16.1202 12.6072 -1.0725 0.9213
-15.2462 9.2029 -0.9333 0.9312
-17.8445 8.0211 -1.0253 0.9246
-25.8370 8.0433 -1.4182 0.8973
-29.0816 5.3268 -1.5495 0.8883
-30.7940 1.8659 -1.6168 0.8838
-32.4109 -1.9509 -1.7017 0.8780
-31.9405 -5.8373 -1.7017 0.8780
-31.0059 -9.6388 -1.7017 0.8780
-29.6206 -13.3000 -1.7017 0.8780
-27.7696 -16.7469 -1.6995 0.8782
-23.2962 -18.2044 -1.5495 0.8883
-20.9362 -20.8756 -1.5495 0.8883
-18.2717 -23.2435 -1.5495 0.8883
-12.2874 -20.2420 -1.2410 0.9095
-12.1885 -26.9361 -1.5495 0.8883
-9.7016 -30.8925 -1.6970 0.8784
-5.9296 -31.9235 -1.7017 0.8780
-0.5561 -8.8137 -0.4628 0.9652
0.4796 -8.3138 -0.4364 0.9672
1.5103 -8.3824 -0.4464 0.9665
9.5614 -31.0298 -1.7017 0.8780
13.2263 -29.6536 -1.7017 0.8780
11.2997 -18.8430 -1.1515 0.9158
11.7131 -15.0666 -1.0002 0.9264
20.8234 -20.9880 -1.5495 0.8883
23.1978 -18.3296 -1.5495 0.8883
23.5126 -14.3531 -1.4437 0.8955
29.5485 -13.4595 -1.7017 0.8780
30.9535 -9.8056 -1.7017 0.8780
31.9086 -6.0092 -1.7017 0.8780
32.3999 -2.1254 -1.7017 0.8780
29.5205 1.6292 -1.5495 0.8883
24.2263 4.3027 -1.2895 0.9061
19.7435 6.0299 -1.0819 0.9206
18.7220 8.2946 -1.0732 0.9213
17.7057 10.5578 -1.0804 0.9207
17.7263 13.7101 -1.1744 0.9141
8.5462 8.4370 -0.6294 0.9530
8.4675 10.6618 -0.7135 0.9469
15.4674 25.1966 -1.5495 0.8883
13.5331 29.5149 -1.7017 0.8780
9.8828 30.9290 -1.7017 0.8780
6.0887 31.8936 -1.7017 0.8780
2.2062 32.3945 -1.7017 0.8780
-1.7085 32.4246 -1.7017 0.8780
-5.5982 31.9833 -1.7017 0.8780
-9.4066 31.0771 -1.7017 0.8780
-11.9085 27.0610 -1.5495 0.8883
-15.0787 25.4312 -1.5495 0.8883
-16.1021 20.9266 -1.3838 0.8996
-16.1097 16.3998 -1.2048 0.9120
-16.1195 12.8676 -1.0809 0.9207
-16.1276 9.9556 -0.9933 0.9269
-17.3761 8.0198 -1.0030 0.9262
-24.9498 8.0408 -1.3738 0.9003
-29.0270 5.6165 -1.5495 0.8883
-29.4920 2.0824 -1.5495 0.8883
-32.4287 -1.6276 -1.7017 0.8780
-31.9972 -5.5185 -1.7017 0.8780
-31.1005 -9.3291 -1.7017 0.8780
-29.7517 -13.0041 -1.7017 0.8780
-27.9705 -16.4902 -1.7017 0.8780
-23.4766 -17.9712 -1.5495 0.8883
-21.1432 -20.6659 -1.5495 0.8883
-18.5024 -23.0602 -1.5495 0.8883
-15.5928 -25.1193 -1.5495 0.8883
-12.4565 -26.8132 -1.5495 0.8883
-9.8779 -30.3905 -1.6747 0.8799
-6.2476 -31.8628 -1.7017 0.8780
-2.3676 -32.3831 -1.7017 0.8780
0.3966 -8.3162 -0.4363 0.9672
1.4207 -8.3621 -0.4445 0.9666
9.2516 -31.1236 -1.7017 0.8780
12.9299 -29.7840 -1.7017 0.8780
11.3530 -19.3670 -1.1765 0.9140
11.5393 -15.1525 -0.9982 0.9265
20.6131 -21.1946 -1.5495 0.8883
23.0140 -18.5598 -1.5495 0.8883
27.4832 -17.1552 -1.6979 0.8783
26.9679 -12.6101 -1.5602 0.8876
30.8542 -10.1138 -1.7017 0.8780
31.8471 -6.3271 -1.7017 0.8780
32.3771 -2.4484 -1.7017 0.8780
32.3007 1.4598 -1.6945 0.8785
25.2349 4.2228 -1.3409 0.9026
20.0444 5.9039 -1.0951 0.9197
18.8059 8.1085 -1.0733 0.9212
17.7830 10.3649 -1.0787 0.9209
17.7245 13.4283 -1.1654 0.9148
8.5728 8.2961 -0.6252 0.9533
8.4678 10.4466 -0.7048 0.9476
15.7178 25.0412 -1.5495 0.8883
13.8266 29.3785 -1.7017 0.8780
10.1905 30.8290 -1.7017 0.8780
6.4064 31.8313 -1.7017 0.8780
2.5291 32.3709 -1.7017 0.8780
-1.3851 32.4400 -1.7017 0.8780
-5.2790 32.0375 -1.7017 0.8780
-9.0963 31.1694 -1.7017 0.8780
-11.6381 27.1784 -1.5495 0.8883
-14.8244 25.5803 -1.5495 0.8883
-16.1009 21.3624 -1.4019 0.8984
-16.1087 16.7293 -1.2171 0.9112
-16.1188 13.1323 -1.0896 0.9201
-16.1270 10.1786 -0.9994 0.9265
-16.9280 8.0185 -0.9817 0.9277
-24.1167 8.0385 -1.3323 0.9032
-28.9696 5.9055 -1.5495 0.8883
-29.4697 2.3763 -1.5495 0.8883
-22.9129 -0.9211 -1.2018 0.9122
-32.0506 -5.1992 -1.7017 0.8780
-31.1919 -9.0186 -1.7017 0.8780
-29.8799 -12.7068 -1.7017 0.8780
-28.1335 -16.2104 -1.7017 0.8780
-23.6546 -17.7362 -1.5495 0.8883
-21.3482 -20.4540 -1.5495 0.8883
-18.7314 -22.8746 -1.5495 0.8883
-15.8424 -24.9626 -1.5495 0.8883
-12.7231 -26.6877 -1.5495 0.8883
-9.8869 -29.4174 -1.6264 0.8831
-6.5649 -31.7990 -1.7017 0.8780
-2.6903 -32.3579 -1.7017 0.8780
0.3135 -8.3148 -0.4361 0.9672
1.3333 -8.3507 -0.4432 0.9667
8.9408 -31.2143 -1.7017 0.8780
12.6323 -29.9115 -1.7017 0.8780
14.7090 -25.6754 -1.5508 0.8882
11.4108 -15.2978 -1.0002 0.9264
20.4008 -21.3991 -1.5495 0.8883
22.8278 -18.7884 -1.5495 0.8883
27.2381 -17.3820 -1.6934 0.8786
26.7923 -12.8550 -1.5574 0.8878
30.7519 -10.4208 -1.7017 0.8780
31.7825 -6.6442 -1.7017 0.8780
32.3511 -2.7709 -1.7017 0.8780
32.4164 1.1414 -1.6999 0.8782
26.8167 4.2130 -1.4226 0.8970
20.3692 5.7795 -1.1096 0.9187
18.8899 7.9222 -1.0735 0.9212
17.8718 10.1794 -1.0779 0.9209
15.0215 11.1465 -0.9803 0.9278
8.6640 8.2187 -0.6259 0.9533
8.4748 10.2447 -0.6968 0.9481
15.9667 24.8833 -1.5495 0.8883
14.1135 29.2281 -1.7010 0.8781
10.4974 30.7258 -1.7017 0.8780
6.7233 31.7658 -1.7017 0.8780
2.8516 32.3441 -1.7017 0.8780
-1.0617 32.4522 -1.7017 0.8780
-4.9594 32.0886 -1.7017 0.8780
-8.7851 31.2585 -1.7017 0.8780
-11.3665 27.2931 -1.5495 0.8883
-14.5686 25.7268 -1.5495 0.8883
-16.0996 21.8098 -1.4207 0.8971
-16.1078 17.0656 -1.2298 0.9103
-16.1180 13.4012 -1.0985 0.9195
-16.1263 10.4045 -1.0058 0.9260
-16.4982 8.0173 -0.9613 0.9292
-23.3320 8.0363 -1.2933 0.9059
-28.9093 6.1940 -1.5495 0.8883
-29.4446 2.6699 -1.5495 0.8883
-22.7482 -0.6875 -1.1927 0.9129
-32.1008 -4.8795 -1.7017 0.8780
-31.2803 -8.7071 -1.7017 0.8780
-30.0051 -12.4083 -1.7017 0.8780
-28.2937 -15.9291 -1.7017 0.8780
-23.8303 -17.4995 -1.5495 0.8883
-21.5511 -20.2402 -1.5495 0.8883
-18.9586 -22.6867 -1.5495 0.8883
-16.0905 -24.8034 -1.5495 0.8883
-12.9886 -26.5595 -1.5495 0.8883
-9.8953 -28.4983 -1.5810 0.8862
-6.8816 -31.7319 -1.7017 0.8780
-3.0128 -32.3295 -1.7017 0.8780
0.2305 -8.3134 -0.4359 0.9672
1.2479 -8.3494 -0.4424 0.9668
8.6292 -31.3019 -1.7017 0.8780
12.3335 -30.0359 -1.7017 0.8780
14.5495 -25.9946 -1.5612 0.8875
11.3421 -15.5264 -1.0077 0.9259
20.1864 -21.6014 -1.5495 0.8883
22.6393 -19.0151 -1.5495 0.8883
26.6507 -17.3835 -1.6676 0.8803
29.1328 -14.3371 -1.7017 0.8780
30.6465 -10.7269 -1.7017 0.8780
31.7147 -6.9607 -1.7017 0.8780
32.3219 -3.0933 -1.7017 0.8780
32.4592 0.8190 -1.7017 0.8780
28.6033 4.2020 -1.5151 0.8907
20.7028 5.6518 -1.1247 0.9176
18.9739 7.7360 -1.0739 0.9212
17.9564 9.9918 -1.0769 0.9210
15.0409 10.9301 -0.9744 0.9282
8.7900 8.1733 -0.6290 0.9531
8.4802 10.0456 -0.6890 0.9487
16.2140 24.7228 -1.5495 0.8883
14.3677 29.0122 -1.6967 0.8784
10.8032 30.6196 -1.7017 0.8780
7.0397 31.6972 -1.7017 0.8780
3.1739 32.3141 -1.7017 0.8780
-0.7381 32.4612 -1.7017 0.8780
-4.6393 32.1364 -1.7017 0.8780
-8.4731 31.3445 -1.7017 0.8780
-11.0940 27.4050 -1.5495 0.8883
-14.3114 25.8707 -1.5495 0.8883
-16.0984 22.2694 -1.4401 0.8958
-16.1069 17.4091 -1.2430 0.9094
-11.0990 9.4170 -0.7628 0.9434
-16.1257 10.6333 -1.0123 0.9255
-16.1329 8.0396 -0.9447 0.9303
-22.5919 8.0342 -1.2566 0.9084
-28.8461 6.4820 -1.5495 0.8883
-29.4165 2.9634 -1.5495 0.8883
-22.6671 -0.4588 -1.1882 0.9132
-32.1479 -4.5592 -1.7017 0.8780
-31.3655 -8.3949 -1.7017 0.8780
-30.1273 -12.1086 -1.7017 0.8780
-28.4511 -15.6464 -1.7017 0.8780
-24.0035 -17.2611 -1.5495 0.8883
-21.7518 -20.0243 -1.5495 0.8883
-19.1838 -22.4965 -1.5495 0.8883
-16.3370 -24.6417 -1.5495 0.8883
-13.2527 -26.4287 -1.5495 0.8883
-9.9758 -27.8316 -1.5495 0.8883
-7.1977 -31.6617 -1.7017 0.8780
-3.3350 -32.2978 -1.7017 0.8780
0.1475 -8.3120 -0.4357 0.9672
1.1613 -8.3381 -0.4412 0.9668
8.3167 -31.3864 -1.7017 0.8780
12.0335 -30.1574 -1.7017 0.8780
14.5443 -26.6041 -1.5890 0.8856
11.2997 -15.7965 -1.0179 0.9252
19.9700 -21.8016 -1.5495 0.8883
22.4486 -19.2399 -1.5495 0.8883
26.0808 -17.3849 -1.6427 0.8820
25.0824 -12.6560 -1.4724 0.8936
30.5380 -11.0319 -1.7017 0.8780
31.6437 -7.2766 -1.7017 0.8780
32.2894 -3.4155 -1.7017 0.8780
32.4658 0.4953 -1.7017 0.8780
29.2928 4.0054 -1.5495 0.8883
21.0456 5.5205 -1.1403 0.9165
19.0580 7.5496 -1.0743 0.9212
18.0409 9.8046 -1.0761 0.9210
17.7191 12.6084 -1.1397 0.9166
8.9186 8.1286 -0.6324 0.9528
8.4856 9.8510 -0.6814 0.9493
16.4597 24.5600 -1.5495 0.8883
14.5271 28.6132 -1.6818 0.8794
11.1080 30.5104 -1.7017 0.8780
7.3554 31.6254 -1.7017 0.8780
3.4960 32.2808 -1.7017 0.8780
-0.4144 32.4669 -1.7017 0.8780
-4.3186 32.1811 -1.7017 0.8780
-8.1601 31.4274 -1.7017 0.8780
-10.8202 27.5143 -1.5495 0.8883
-12.9533 23.9770 -1.4282 0.8966
-16.0970 22.7416 -1.4602 0.8944
-16.1059 17.7599 -1.2565 0.9084
-11.0273 9.5468 -0.7644 0.9433
-16.1251 10.8651 -1.0190 0.9251
-16.1323 8.2411 -0.9494 0.9300
-21.8925 8.0323 -1.2221 0.9108
-28.7800 6.7693 -1.5495 0.8883
-29.3855 3.2565 -1.5495 0.8883
-22.6450 -0.2325 -1.1868 0.9133
-32.1917 -4.2384 -1.7017 0.8780
-31.4477 -8.0818 -1.7017 0.8780
-30.2465 -11.8076 -1.7017 0.8780
-28.6057 -15.3619 -1.7017 0.8780
-24.3133 -17.1187 -1.5584 0.8877
-21.9503 -19.8065 -1.5495 0.8883
-19.4071 -22.3042 -1.5495 0.8883
-16.5818 -24.4777 -1.5495 0.8883
-13.5156 -26.2953 -1.5495 0.8883
-10.2528 -27.7307 -1.5495 0.8883
-7.5130 -31.5884 -1.7017 0.8780
-3.6568 -32.2630 -1.7017 0.8780
0.0646 -8.3105 -0.4355 0.9673
1.0752 -8.3268 -0.4400 0.9669
8.0034 -31.4677 -1.7017 0.8780
11.7322 -30.2758 -1.7017 0.8780
14.5390 -27.2360 -1.6180 0.8837
11.3215 -16.1651 -1.0343 0.9240
19.7517 -21.9996 -1.5495 0.8883
22.2557 -19.4627 -1.5495 0.8883
25.5276 -17.3862 -1.6187 0.8836
24.3837 -12.6100 -1.4387 0.8959
30.4265 -11.3358 -1.7017 0.8780
31.5696 -7.5917 -1.7017 0.8780
32.2538 -3.7373 -1.7017 0.8780
18.0600 0.0954 -0.9465 0.9302
29.3313 3.7131 -1.5495 0.8883
21.3982 5.3855 -1.1564 0.9154
19.1422 7.3630 -1.0749 0.9211
18.1252 9.6176 -1.0753 0.9211
17.7173 12.3429 -1.1316 0.9171
9.0624 8.0957 -0.6368 0.9525
8.4954 9.6659 -0.6744 0.9498
16.7037 24.3947 -1.5495 0.8883
14.5330 27.9316 -1.6501 0.8815
11.4115 30.3982 -1.7017 0.8780
7.6705 31.5505 -1.7017 0.8780
3.8178 32.2443 -1.7017 0.8780
-0.0905 32.4694 -1.7017 0.8780
-3.9974 32.2225 -1.7017 0.8780
-7.8465 31.5072 -1.7017 0.8780
-10.5454 27.6208 -1.5495 0.8883
-13.7928 26.1509 -1.5495 0.8883
-10.4482 15.0777 -0.9613 0.9292
-16.1099 18.1244 -1.2708 0.9074
-16.2197 14.3276 -1.1342 0.9170
-16.1244 11.1000 -1.0259 0.9246
-16.1318 8.4447 -0.9543 0.9297
-21.0831 7.9747 -1.1813 0.9137
-28.7111 7.0559 -1.5495 0.8883
-29.3516 3.5493 -1.5495 0.8883
-22.6302 -0.0068 -1.1860 0.9133
-32.2324 -3.9172 -1.7017 0.8780
-31.5267 -7.7678 -1.7017 0.8780
15.9546 -11.1244 -1.7017 0.9249
17.1775 -9.1235 -1.7017 0.9249
18.1506 -6.9899 -1.7017 0.9249
18.8599 -4.7548 -1.7017 0.9249
19.2950 -2.4505 -1.7017 0.9249
19.4497 -0.1106 -1.7017 0.9249
19.2567 2.2234 -1.6959 0.9251
17.2211 4.1339 -1.5495 0.9314
16.5985 6.1764 -1.5495 0.9314
15.7345 8.1290 -1.5495 0.9314
14.6419 9.9636 -1.5495 0.9314
8.4034 7.3429 -0.9763 0.9562
8.3909 9.3383 -1.0984 0.9508
11.1642 15.9269 -1.7017 0.9249
9.1663 17.1547 -1.7017 0.9249
7.0351 18.1331 -1.7017 0.9249
1.9198 7.5357 -0.6803 0.9693
2.2863 17.6500 -1.5571 0.9310
0.1591 19.4494 -1.7017 0.9249
-2.1827 19.3271 -1.7017 0.9249
-4.4928 18.9240 -1.7017 0.9249
-6.7376 18.2458 -1.7017 0.9249
-8.8845 17.3023 -1.7017 0.9249
-9.9270 14.6667 -1.5495 0.9314
-11.6200 13.3654 -1.5495 0.9314
