ply
format ascii 1.0
element vertex 1590
property float32 x
property float32 y
property float32 z
property float32 I
end_header
-6.3678 -8.6537 -1.7017 0.9574
-5.2793 -9.3576 -1.7017 0.9574
-4.1140 -9.9253 -1.7017 0.9574
-2.8888 -10.3485 -1.7017 0.9574
-1.6215 -10.6210 -1.7017 0.9574
-0.3307 -10.7390 -1.7017 0.9574
0.9650 -10.7007 -1.7017 0.9574
1.4694 -6.8718 -1.1130 0.9719
2.3745 -6.9012 -1.1559 0.9709
3.3372 -6.8717 -1.2099 0.9695
4.4320 -6.8718 -1.2951 0.9674
6.8683 -8.2621 -1.7017 0.9574
7.8133 -7.3749 -1.7017 0.9574
8.6445 -6.3802 -1.7017 0.9574
9.3500 -5.2928 -1.7017 0.9574
9.9193 -4.1283 -1.7017 0.9574
10.3443 -2.9037 -1.7017 0.9574
10.6187 -1.6368 -1.7017 0.9574
10.7385 -0.3461 -1.7017 0.9574
10.7021 0.9496 -1.7017 0.9574
10.5098 2.2315 -1.7017 0.9574
10.1646 3.4809 -1.7017 0.9574
9.6714 4.6797 -1.7017 0.9574
9.0375 5.8103 -1.7017 0.9574
8.2720 6.8564 -1.7017 0.9574
7.3861 7.8026 -1.7017 0.9574
6.3927 8.6353 -1.7017 0.9574
5.3063 9.3423 -1.7017 0.9574
4.1426 9.9134 -1.7017 0.9574
1.8005 6.3791 -1.0498 0.9735
1.5118 9.7143 -1.5571 0.9610
0.3309 9.8257 -1.5571 0.9610
-0.9342 10.7034 -1.7017 0.9574
-2.2164 10.5130 -1.7017 0.9574
-3.4663 10.1696 -1.7017 0.9574
-4.6657 9.6782 -1.7017 0.9574
-5.7973 9.0458 -1.7017 0.9574
-6.8445 8.2819 -1.7017 0.9574
-7.7920 7.3974 -1.7017 0.9574
-8.6261 6.4052 -1.7017 0.9574
-9.3347 5.3197 -1.7017 0.9574
-9.9074 4.1568 -1.7017 0.9574
-10.3359 2.9335 -1.7017 0.9574
-10.6139 1.6674 -1.7017 0.9574
-10.7375 0.3771 -1.7017 0.9574
-10.7048 -0.9187 -1.7017 0.9574
-10.5162 -2.2012 -1.7017 0.9574
-10.1746 -3.4516 -1.7017 0.9574
-9.6849 -4.6518 -1.7017 0.9574
-9.0542 -5.7843 -1.7017 0.9574
-8.2917 -6.8325 -1.7017 0.9574
-7.4086 -7.7813 -1.7017 0.9574
-6.4176 -8.6169 -1.7017 0.9574
-5.3332 -9.3270 -1.7017 0.9574
-4.1711 -9.9014 -1.7017 0.9574
-2.9484 -10.3316 -1.7017 0.9574
-1.6827 -10.6115 -1.7017 0.9574
-0.3925 -10.7369 -1.7017 0.9574
0.9033 -10.7061 -1.7017 0.9574
1.4280 -6.8718 -1.1116 0.9720
2.3303 -6.9019 -1.1538 0.9709
3.2898 -6.8745 -1.2071 0.9696
4.3761 -6.8718 -1.2903 0.9675
6.8205 -8.3016 -1.7017 0.9574
7.7706 -7.4198 -1.7017 0.9574
8.6076 -6.4300 -1.7017 0.9574
9.3193 -5.3466 -1.7017 0.9574
9.8954 -4.1854 -1.7017 0.9574
10.3274 -2.9632 -1.7017 0.9574
10.6091 -1.6980 -1.7017 0.9574
10.7364 -0.4080 -1.7017 0.9574
10.7074 0.8879 -1.7017 0.9574
10.5225 2.1709 -1.7017 0.9574
10.1845 3.4223 -1.7017 0.9574
9.6982 4.6239 -1.7017 0.9574
9.0708 5.7581 -1.7017 0.9574
8.3114 6.8086 -1.7017 0.9574
7.4309 7.7600 -1.7017 0.9574
6.4424 8.5984 -1.7017 0.9574
5.3600 9.3116 -1.7017 0.9574
4.1996 9.8893 -1.7017 0.9574
1.8402 6.3787 -1.0515 0.9735
1.5677 9.7055 -1.5571 0.9610
0.3875 9.8236 -1.5571 0.9610
-0.8725 10.7086 -1.7017 0.9574
-2.1557 10.5256 -1.7017 0.9574
-3.4076 10.1894 -1.7017 0.9574
-4.6099 9.7049 -1.7017 0.9574
-5.7451 9.0791 -1.7017 0.9574
-6.7966 8.3212 -1.7017 0.9574
-7.7492 7.4421 -1.7017 0.9574
-8.5891 6.4547 -1.7017 0.9574
-9.3039 5.3734 -1.7017 0.9574
-9.8833 4.2139 -1.7017 0.9574
-10.3188 2.9930 -1.7017 0.9574
-10.6042 1.7286 -1.7017 0.9574
-10.7351 0.4390 -1.7017 0.9574
-10.7099 -0.8571 -1.7017 0.9574
-10.5287 -2.1406 -1.7017 0.9574
-10.1943 -3.3929 -1.7017 0.9574
-9.7115 -4.5959 -1.7017 0.9574
-9.0874 -5.7320 -1.7017 0.9574
-8.3310 -6.7846 -1.7017 0.9574
-7.4533 -7.7385 -1.7017 0.9574
-6.4671 -8.5798 -1.7017 0.9574
-5.3868 -9.2961 -1.7017 0.9574
-4.2281 -9.8772 -1.7017 0.9574
-3.0079 -10.3145 -1.7017 0.9574
-1.7438 -10.6016 -1.7017 0.9574
-0.4544 -10.7345 -1.7017 0.9574
0.8416 -10.7111 -1.7017 0.9574
1.3900 -6.8876 -1.1129 0.9719
2.2860 -6.9016 -1.1515 0.9710
3.2425 -6.8773 -1.2043 0.9697
4.3236 -6.8765 -1.2865 0.9676
6.7726 -8.3407 -1.7017 0.9574
7.7278 -7.4644 -1.7017 0.9574
8.5704 -6.4795 -1.7017 0.9574
9.2884 -5.4002 -1.7017 0.9574
9.8711 -4.2423 -1.7017 0.9574
10.3101 -3.0227 -1.7017 0.9574
10.5991 -1.7591 -1.7017 0.9574
10.7338 -0.4699 -1.7017 0.9574
10.7123 0.8262 -1.7017 0.9574
10.5348 2.1102 -1.7017 0.9574
10.2040 3.3635 -1.7017 0.9574
9.7247 4.5679 -1.7017 0.9574
9.1038 5.7058 -1.7017 0.9574
8.3505 6.7606 -1.7017 0.9574
7.4755 7.7170 -1.7017 0.9574
6.4918 8.5611 -1.7017 0.9574
5.4136 9.2806 -1.7017 0.9574
4.2565 9.8650 -1.7017 0.9574
1.8848 6.3947 -1.0559 0.9734
1.6236 9.6963 -1.5571 0.9610
0.4441 9.8212 -1.5571 0.9610
-0.8107 10.7135 -1.7017 0.9574
-2.0950 10.5379 -1.7017 0.9574
-3.3488 10.2089 -1.7017 0.9574
-4.5539 9.7313 -1.7017 0.9574
-5.6927 9.1121 -1.7017 0.9574
-6.7485 8.3602 -1.7017 0.9574
-7.7062 7.4867 -1.7017 0.9574
-8.5517 6.5041 -1.7017 0.9574
-9.2728 5.4269 -1.7017 0.9574
-9.8588 4.2707 -1.7017 0.9574
-10.3014 3.0524 -1.7017 0.9574
-10.5940 1.7896 -1.7017 0.9574
-10.7324 0.5008 -1.7017 0.9574
-10.7146 -0.7953 -1.7017 0.9574
-10.5409 -2.0799 -1.7017 0.9574
-10.2137 -3.3341 -1.7017 0.9574
-9.7378 -4.5399 -1.7017 0.9574
-9.1203 -5.6795 -1.7017 0.9574
-8.3699 -6.7365 -1.7017 0.9574
-7.4977 -7.6954 -1.7017 0.9574
-6.5164 -8.5424 -1.7017 0.9574
-5.4403 -9.2649 -1.7017 0.9574
-4.2850 -9.8527 -1.7017 0.9574
-3.0672 -10.2970 -1.7017 0.9574
-1.8049 -10.5914 -1.7017 0.9574
-0.5163 -10.7317 -1.7017 0.9574
0.7799 -10.7158 -1.7017 0.9574
1.3482 -6.8849 -1.1112 0.9720
2.2418 -6.9012 -1.1493 0.9710
3.1955 -6.8801 -1.2015 0.9697
4.2712 -6.8808 -1.2827 0.9677
6.7244 -8.3796 -1.7017 0.9574
7.6846 -7.5088 -1.7017 0.9574
8.5330 -6.5287 -1.7017 0.9574
9.2571 -5.4536 -1.7017 0.9574
9.8465 -4.2991 -1.7017 0.9574
10.2925 -3.0821 -1.7017 0.9574
10.5888 -1.8201 -1.7017 0.9574
10.7309 -0.5317 -1.7017 0.9574
10.7169 0.7645 -1.7017 0.9574
10.5468 2.0495 -1.7017 0.9574
10.2232 3.3047 -1.7017 0.9574
9.7509 4.5118 -1.7017 0.9574
9.1366 5.6532 -1.7017 0.9574
8.3893 6.7124 -1.7017 0.9574
7.5199 7.6738 -1.7017 0.9574
6.5410 8.5235 -1.7017 0.9574
5.4670 9.2492 -1.7017 0.9574
4.3133 9.8403 -1.7017 0.9574
2.8338 9.4140 -1.5571 0.9610
1.6795 9.6868 -1.5571 0.9610
0.5007 9.8185 -1.5571 0.9610
-0.7490 10.7180 -1.7017 0.9574
-2.0343 10.5498 -1.7017 0.9574
-3.2899 10.2280 -1.7017 0.9574
-4.4977 9.7574 -1.7017 0.9574
-5.6400 9.1447 -1.7017 0.9574
-6.7002 8.3990 -1.7017 0.9574
-7.6630 7.5309 -1.7017 0.9574
-8.5141 6.5533 -1.7017 0.9574
-9.2413 5.4803 -1.7017 0.9574
-9.8341 4.3275 -1.7017 0.9574
-10.2836 3.1117 -1.7017 0.9574
-10.5835 1.8506 -1.7017 0.9574
-10.7294 0.5626 -1.7017 0.9574
-10.7190 -0.7336 -1.7017 0.9574
-10.5527 -2.0191 -1.7017 0.9574
-10.2327 -3.2752 -1.7017 0.9574
-9.7639 -4.4837 -1.7017 0.9574
-9.1528 -5.6269 -1.7017 0.9574
-8.4086 -6.6881 -1.7017 0.9574
-7.5420 -7.6521 -1.7017 0.9574
-6.5656 -8.5047 -1.7017 0.9574
-5.4936 -9.2334 -1.7017 0.9574
-4.3416 -9.8278 -1.7017 0.9574
-3.1265 -10.2791 -1.7017 0.9574
-1.8659 -10.5808 -1.7017 0.9574
-0.5781 -10.7285 -1.7017 0.9574
0.7181 -10.7201 -1.7017 0.9574
1.3092 -6.8965 -1.1118 0.9720
2.1978 -6.9007 -1.1471 0.9711
3.1487 -6.8828 -1.1988 0.9698
4.2151 -6.8786 -1.2777 0.9679
6.6760 -8.4182 -1.7017 0.9574
7.6412 -7.5530 -1.7017 0.9574
8.4952 -6.5778 -1.7017 0.9574
9.2255 -5.5069 -1.7017 0.9574
9.8215 -4.3558 -1.7017 0.9574
10.2746 -3.1413 -1.7017 0.9574
10.5781 -1.8811 -1.7017 0.9574
10.7277 -0.5935 -1.7017 0.9574
10.7211 0.7026 -1.7017 0.9574
10.5585 1.9887 -1.7017 0.9574
10.2421 3.2457 -1.7017 0.9574
9.7767 4.4555 -1.7017 0.9574
9.1690 5.6005 -1.7017 0.9574
8.4278 6.6639 -1.7017 0.9574
7.5640 7.6303 -1.7017 0.9574
6.5900 8.4857 -1.7017 0.9574
5.5202 9.2176 -1.7017 0.9574
4.3699 9.8153 -1.7017 0.9574
2.8880 9.3975 -1.5571 0.9610
1.7352 9.6769 -1.5571 0.9610
0.5573 9.8155 -1.5571 0.9610
-0.6872 10.7221 -1.7017 0.9574
-1.9734 10.5613 -1.7017 0.9574
-3.2310 10.2468 -1.7017 0.9574
-4.4414 9.7831 -1.7017 0.9574
-5.5873 9.1771 -1.7017 0.9574
-6.6518 8.4374 -1.7017 0.9574
-7.6194 7.5750 -1.7017 0.9574
-8.4762 6.6022 -1.7017 0.9574
-9.2096 5.5334 -1.7017 0.9574
-9.8090 4.3841 -1.7017 0.9574
-10.2655 3.1709 -1.7017 0.9574
-10.5727 1.9116 -1.7017 0.9574
-10.7259 0.6245 -1.7017 0.9574
-10.7231 -0.6718 -1.7017 0.9574
-10.5641 -1.9582 -1.7017 0.9574
-10.2514 -3.2162 -1.7017 0.9574
-9.7895 -4.4273 -1.7017 0.9574
-9.1851 -5.5740 -1.7017 0.9574
-8.4470 -6.6396 -1.7017 0.9574
-7.5859 -7.6085 -1.7017 0.9574
-6.6144 -8.4667 -1.7017 0.9574
-5.5467 -9.2016 -1.7017 0.9574
-4.3982 -9.8026 -1.7017 0.9574
-3.1857 -10.2609 -1.7017 0.9574
-1.9268 -10.5699 -1.7017 0.9574
-0.6399 -10.7250 -1.7017 0.9574
0.6563 -10.7240 -1.7017 0.9574
1.2707 -6.9108 -1.1129 0.9719
2.1534 -6.8985 -1.1446 0.9712
3.1019 -6.8853 -1.1961 0.9699
4.1594 -6.8764 -1.2729 0.9680
6.6274 -8.4565 -1.7017 0.9574
7.5976 -7.5969 -1.7017 0.9574
8.4572 -6.6266 -1.7017 0.9574
9.1936 -5.5599 -1.7017 0.9574
9.7963 -4.4123 -1.7017 0.9574
10.2563 -3.2005 -1.7017 0.9574
10.5671 -1.9421 -1.7017 0.9574
10.7241 -0.6554 -1.7017 0.9574
10.7250 0.6409 -1.7017 0.9574
10.5697 1.9278 -1.7017 0.9574
10.2607 3.1866 -1.7017 0.9574
9.8022 4.3991 -1.7017 0.9574
9.2011 5.5475 -1.7017 0.9574
8.4661 6.6152 -1.7017 0.9574
7.6078 7.5866 -1.7017 0.9574
6.6388 8.4476 -1.7017 0.9574
5.5732 9.1856 -1.7017 0.9574
4.4264 9.7899 -1.7017 0.9574
2.9421 9.3807 -1.5571 0.9610
1.7910 9.6668 -1.5571 0.9610
0.6138 9.8121 -1.5571 0.9610
-0.6254 10.7259 -1.7017 0.9574
-1.9126 10.5725 -1.7017 0.9574
-3.1719 10.2652 -1.7017 0.9574
-4.3850 9.8086 -1.7017 0.9574
-5.5343 9.2091 -1.7017 0.9574
-6.6030 8.4756 -1.7017 0.9574
-7.5756 7.6188 -1.7017 0.9574
-8.4380 6.6510 -1.7017 0.9574
-9.1776 5.5864 -1.7017 0.9574
-9.7835 4.4406 -1.7017 0.9574
-10.2471 3.2300 -1.7017 0.9574
-10.5615 1.9725 -1.7017 0.9574
-10.7222 0.6863 -1.7017 0.9574
-10.7268 -0.6100 -1.7017 0.9574
-10.5752 -1.8973 -1.7017 0.9574
-10.2698 -3.1571 -1.7017 0.9574
-9.8149 -4.3708 -1.7017 0.9574
-9.2171 -5.5210 -1.7017 0.9574
-8.4851 -6.5908 -1.7017 0.9574
-7.6297 -7.5646 -1.7017 0.9574
-6.6631 -8.4284 -1.7017 0.9574
-5.5996 -9.1695 -1.7017 0.9574
-4.4546 -9.7771 -1.7017 0.9574
-3.2448 -10.2424 -1.7017 0.9574
-1.9877 -10.5586 -1.7017 0.9574
-0.7017 -10.7212 -1.7017 0.9574
0.5945 -10.7276 -1.7017 0.9574
1.2324 -6.9265 -1.1143 0.9719
2.1085 -6.8943 -1.1419 0.9712
3.0547 -6.8861 -1.1931 0.9700
4.1042 -6.8742 -1.2681 0.9681
6.5786 -8.4946 -1.7017 0.9574
7.5537 -7.6405 -1.7017 0.9574
8.4188 -6.6753 -1.7017 0.9574
9.1614 -5.6128 -1.7017 0.9574
9.7707 -4.4687 -1.7017 0.9574
10.2377 -3.2595 -1.7017 0.9574
10.5558 -2.0029 -1.7017 0.9574
10.7202 -0.7171 -1.7017 0.9574
10.7285 0.5791 -1.7017 0.9574
10.5807 1.8669 -1.7017 0.9574
10.2788 3.1275 -1.7017 0.9574
9.8274 4.3425 -1.7017 0.9574
9.2329 5.4944 -1.7017 0.9574
8.5041 6.5663 -1.7017 0.9574
7.6514 7.5426 -1.7017 0.9574
6.6874 8.4092 -1.7017 0.9574
5.6260 9.1533 -1.7017 0.9574
4.4828 9.7643 -1.7017 0.9574
2.9961 9.3636 -1.5571 0.9610
1.8466 9.6563 -1.5571 0.9610
0.6703 9.8084 -1.5571 0.9610
-0.5636 10.7293 -1.7017 0.9574
-1.8516 10.5834 -1.7017 0.9574
-3.1126 10.2834 -1.7017 0.9574
-4.3284 9.8337 -1.7017 0.9574
-5.4811 9.2409 -1.7017 0.9574
-6.5541 8.5135 -1.7017 0.9574
-7.5316 7.6623 -1.7017 0.9574
-8.3996 6.6995 -1.7017 0.9574
-9.1452 5.6392 -1.7017 0.9574
-9.7578 4.4968 -1.7017 0.9574
-10.2283 3.2890 -1.7017 0.9574
-10.5500 2.0333 -1.7017 0.9574
-10.7180 0.7480 -1.7017 0.9574
-10.7301 -0.5482 -1.7017 0.9574
-10.5860 -1.8363 -1.7017 0.9574
-10.2878 -3.0978 -1.7017 0.9574
-9.8399 -4.3142 -1.7017 0.9574
-9.2487 -5.4678 -1.7017 0.9574
-8.5230 -6.5418 -1.7017 0.9574
-7.6731 -7.5206 -1.7017 0.9574
-6.7116 -8.3899 -1.7017 0.9574
-5.6524 -9.1371 -1.7017 0.9574
-4.5109 -9.7513 -1.7017 0.9574
-3.3037 -10.2235 -1.7017 0.9574
-2.0485 -10.5470 -1.7017 0.9574
-0.7634 -10.7169 -1.7017 0.9574
0.5327 -10.7309 -1.7017 0.9574
1.1962 -6.9551 -1.1178 0.9718
2.0639 -6.8901 -1.1392 0.9713
3.0077 -6.8869 -1.1903 0.9700
4.0494 -6.8720 -1.2633 0.9682
6.5295 -8.5324 -1.7017 0.9574
7.5095 -7.6839 -1.7017 0.9574
8.3802 -6.7237 -1.7017 0.9574
9.1289 -5.6655 -1.7017 0.9574
9.7448 -4.5249 -1.7017 0.9574
10.2188 -3.3185 -1.7017 0.9574
10.5441 -2.0637 -1.7017 0.9574
10.7158 -0.7789 -1.7017 0.9574
10.7317 0.5172 -1.7017 0.9574
10.5913 1.8058 -1.7017 0.9574
10.2967 3.0682 -1.7017 0.9574
9.8523 4.2858 -1.7017 0.9574
9.2644 5.4411 -1.7017 0.9574
8.5418 6.5172 -1.7017 0.9574
7.6948 7.4984 -1.7017 0.9574
6.7357 8.3705 -1.7017 0.9574
5.6787 9.1208 -1.7017 0.9574
4.5390 9.7383 -1.7017 0.9574
3.0500 9.3462 -1.5571 0.9610
1.9023 9.6455 -1.5571 0.9610
0.7269 9.8044 -1.5571 0.9610
-0.5018 10.7324 -1.7017 0.9574
-1.7906 10.5938 -1.7017 0.9574
-3.0533 10.3011 -1.7017 0.9574
-4.2716 9.8585 -1.7017 0.9574
-5.4278 9.2723 -1.7017 0.9574
-6.5049 8.5512 -1.7017 0.9574
-7.4874 7.7055 -1.7017 0.9574
-8.3608 6.7478 -1.7017 0.9574
-9.1126 5.6918 -1.7017 0.9574
-9.7317 4.5530 -1.7017 0.9574
-10.2092 3.3479 -1.7017 0.9574
-10.5381 2.0941 -1.7017 0.9574
-10.7135 0.8098 -1.7017 0.9574
-10.7331 -0.4863 -1.7017 0.9574
-10.5964 -1.7753 -1.7017 0.9574
-10.3055 -3.0385 -1.7017 0.9574
-9.8646 -4.2574 -1.7017 0.9574
-9.2801 -5.4144 -1.7017 0.9574
-8.5605 -6.4926 -1.7017 0.9574
-7.7163 -7.4762 -1.7017 0.9574
-6.7598 -8.3511 -1.7017 0.9574
-5.7050 -9.1043 -1.7017 0.9574
-4.5670 -9.7251 -1.7017 0.9574
-3.3626 -10.2043 -1.7017 0.9574
-2.1093 -10.5350 -1.7017 0.9574
-0.8252 -10.7124 -1.7017 0.9574
0.4708 -10.7338 -1.7017 0.9574
1.1617 -6.9954 -1.1231 0.9717
2.0283 -6.9161 -1.1415 0.9712
2.9611 -6.8882 -1.1875 0.9701
3.9953 -6.8705 -1.2588 0.9683
5.2923 -6.9989 -1.3898 0.9651
7.4651 -7.7271 -1.7017 0.9574
8.3413 -6.7719 -1.7017 0.9574
9.0961 -5.7181 -1.7017 0.9574
9.7185 -4.5810 -1.7017 0.9574
10.1995 -3.3773 -1.7017 0.9574
10.5320 -2.1244 -1.7017 0.9574
10.7112 -0.8406 -1.7017 0.9574
10.7345 0.4554 -1.7017 0.9574
10.6015 1.7448 -1.7017 0.9574
10.3142 3.0088 -1.7017 0.9574
9.8768 4.2290 -1.7017 0.9574
9.2956 5.3877 -1.7017 0.9574
8.5792 6.4679 -1.7017 0.9574
7.7379 7.4540 -1.7017 0.9574
6.7839 8.3316 -1.7017 0.9574
5.7312 9.0879 -1.7017 0.9574
4.5950 9.7119 -1.7017 0.9574
3.1038 9.3285 -1.5571 0.9610
1.9578 9.6343 -1.5571 0.9610
0.7833 9.8000 -1.5571 0.9610
-0.4399 10.7351 -1.7017 0.9574
-1.7295 10.6040 -1.7017 0.9574
-2.9939 10.3185 -1.7017 0.9574
-4.2148 9.8829 -1.7017 0.9574
-5.3743 9.3034 -1.7017 0.9574
-6.4555 8.5885 -1.7017 0.9574
-7.4428 7.7486 -1.7017 0.9574
-8.3218 6.7959 -1.7017 0.9574
-9.0796 5.7442 -1.7017 0.9574
-9.7053 4.6090 -1.7017 0.9574
-10.1897 3.4067 -1.7017 0.9574
-10.5258 2.1548 -1.7017 0.9574
-10.7087 0.8715 -1.7017 0.9574
-10.7357 -0.4245 -1.7017 0.9574
-10.6065 -1.7142 -1.7017 0.9574
-10.3228 -2.9791 -1.7017 0.9574
-9.8890 -4.2005 -1.7017 0.9574
-9.3111 -5.3608 -1.7017 0.9574
-8.5978 -6.4431 -1.7017 0.9574
-7.7593 -7.4316 -1.7017 0.9574
-6.8078 -8.3120 -1.7017 0.9574
-5.7573 -9.0713 -1.7017 0.9574
-4.6230 -9.6987 -1.7017 0.9574
-3.4214 -10.1848 -1.7017 0.9574
-2.1699 -10.5227 -1.7017 0.9574
-0.8869 -10.7074 -1.7017 0.9574
0.4090 -10.7363 -1.7017 0.9574
1.1268 -7.0361 -1.1286 0.9716
1.9724 -6.8718 -1.1323 0.9715
2.9152 -6.8907 -1.1850 0.9702
3.9422 -6.8700 -1.2545 0.9684
5.2175 -6.9832 -1.3807 0.9653
7.4205 -7.7700 -1.7017 0.9574
8.3022 -6.8198 -1.7017 0.9574
9.0630 -5.7704 -1.7017 0.9574
9.6920 -4.6369 -1.7017 0.9574
10.1798 -3.4361 -1.7017 0.9574
10.5196 -2.1851 -1.7017 0.9574
10.7061 -0.9024 -1.7017 0.9574
10.7369 0.3935 -1.7017 0.9574
10.6114 1.6836 -1.7017 0.9574
10.3314 2.9493 -1.7017 0.9574
9.9010 4.1720 -1.7017 0.9574
9.3266 5.3339 -1.7017 0.9574
8.6163 6.4183 -1.7017 0.9574
7.7807 7.4092 -1.7017 0.9574
6.8318 8.2923 -1.7017 0.9574
5.7835 9.0547 -1.7017 0.9574
4.6510 9.6853 -1.7017 0.9574
3.1575 9.3104 -1.5571 0.9610
2.0134 9.6229 -1.5571 0.9610
0.8398 9.7953 -1.5571 0.9610
-0.3780 10.7375 -1.7017 0.9574
-1.6684 10.6138 -1.7017 0.9574
-2.9344 10.3356 -1.7017 0.9574
-4.1577 9.9070 -1.7017 0.9574
-5.3205 9.3342 -1.7017 0.9574
-6.4059 8.6255 -1.7017 0.9574
-7.3980 7.7914 -1.7017 0.9574
-8.2824 6.8438 -1.7017 0.9574
-9.0463 5.7965 -1.7017 0.9574
-9.6786 4.6649 -1.7017 0.9574
-10.1699 3.4654 -1.7017 0.9574
-10.5132 2.2155 -1.7017 0.9574
-10.7035 0.9332 -1.7017 0.9574
-2.2565 -8.4587 -1.7017 0.9650
-1.2214 -8.6688 -1.7017 0.9650
-0.1686 -8.7529 -1.7017 0.9650
0.8867 -8.7095 -1.7017 0.9650
1.5524 -6.8718 -1.3694 0.9717
2.4713 -6.9223 -1.4287 0.9705
3.9149 -7.8303 -1.7017 0.9650
4.5450 -6.8718 -1.6015 0.9670
5.6736 -6.6672 -1.7017 0.9650
6.4352 -5.9354 -1.7017 0.9650
7.1032 -5.1172 -1.7017 0.9650
7.6677 -4.2246 -1.7017 0.9650
8.1207 -3.2704 -1.7017 0.9650
8.4554 -2.2687 -1.7017 0.9650
8.6671 -1.2339 -1.7017 0.9650
8.7526 -0.1812 -1.7017 0.9650
8.7107 0.8742 -1.7017 0.9650
8.5421 1.9168 -1.7017 0.9650
8.2490 2.9316 -1.7017 0.9650
7.8360 3.9036 -1.7017 0.9650
7.3088 4.8189 -1.7017 0.9650
6.6753 5.6640 -1.7017 0.9650
5.9447 6.4267 -1.7017 0.9650
5.1274 7.0958 -1.7017 0.9650
4.2356 7.6616 -1.7017 0.9650
3.0033 7.4264 -1.5571 0.9679
1.7134 6.3493 -1.2783 0.9736
1.1405 7.9291 -1.5571 0.9679
0.1938 8.7524 -1.7017 0.9650
-0.8616 8.7120 -1.7017 0.9650
-1.9045 8.5448 -1.7017 0.9650
-2.9197 8.2533 -1.7017 0.9650
-3.8923 7.8416 -1.7017 0.9650
-4.8084 7.3158 -1.7017 0.9650
-5.6544 6.6835 -1.7017 0.9650
-6.4181 5.9539 -1.7017 0.9650
-7.0884 5.1377 -1.7017 0.9650
-7.6555 4.2467 -1.7017 0.9650
-8.1112 3.2938 -1.7017 0.9650
-8.4489 2.2930 -1.7017 0.9650
-8.6635 1.2589 -1.7017 0.9650
-8.7521 0.2064 -1.7017 0.9650
-8.7132 -0.8491 -1.7017 0.9650
-8.5475 -1.8922 -1.7017 0.9650
-8.2575 -2.9078 -1.7017 0.9650
-7.8472 -3.8810 -1.7017 0.9650
-7.3227 -4.7978 -1.7017 0.9650
-6.6916 -5.6447 -1.7017 0.9650
-5.9631 -6.4095 -1.7017 0.9650
-5.1479 -7.0810 -1.7017 0.9650
-4.2577 -7.6494 -1.7017 0.9650
-3.3055 -8.1065 -1.7017 0.9650
-2.3052 -8.4455 -1.7017 0.9650
-1.2714 -8.6617 -1.7017 0.9650
-0.2190 -8.7517 -1.7017 0.9650
0.8365 -8.7144 -1.7017 0.9650
1.5109 -6.8718 -1.3677 0.9717
2.4265 -6.9226 -1.4259 0.9706
3.8697 -7.8528 -1.7017 0.9650
4.4883 -6.8718 -1.5954 0.9671
5.6351 -6.6997 -1.7017 0.9650
6.4009 -5.9724 -1.7017 0.9650
7.0736 -5.1581 -1.7017 0.9650
7.6433 -4.2687 -1.7017 0.9650
8.1017 -3.3172 -1.7017 0.9650
8.4422 -2.3174 -1.7017 0.9650
8.6598 -1.2838 -1.7017 0.9650
8.7514 -0.2316 -1.7017 0.9650
8.7156 0.8240 -1.7017 0.9650
8.5530 1.8676 -1.7017 0.9650
8.2658 2.8840 -1.7017 0.9650
7.8583 3.8584 -1.7017 0.9650
7.3365 4.7767 -1.7017 0.9650
6.7079 5.6254 -1.7017 0.9650
5.9816 6.3923 -1.7017 0.9650
5.1683 7.0661 -1.7017 0.9650
4.2797 7.6371 -1.7017 0.9650
3.0460 7.4090 -1.5571 0.9679
1.7526 6.3489 -1.2803 0.9735
1.1862 7.9224 -1.5571 0.9679
0.2442 8.7511 -1.7017 0.9650
-0.8114 8.7168 -1.7017 0.9650
-1.8553 8.5556 -1.7017 0.9650
-2.8721 8.2700 -1.7017 0.9650
-3.8471 7.8639 -1.7017 0.9650
-4.7661 7.3434 -1.7017 0.9650
-5.6158 6.7160 -1.7017 0.9650
-6.3837 5.9908 -1.7017 0.9650
-7.0587 5.1784 -1.7017 0.9650
-7.6309 4.2907 -1.7017 0.9650
-8.0921 3.3405 -1.7017 0.9650
-8.4355 2.3417 -1.7017 0.9650
-8.6561 1.3088 -1.7017 0.9650
-8.7507 0.2568 -1.7017 0.9650
-8.7180 -0.7989 -1.7017 0.9650
-8.5583 -1.8429 -1.7017 0.9650
-8.2741 -2.8602 -1.7017 0.9650
-7.8694 -3.8358 -1.7017 0.9650
-7.3502 -4.7555 -1.7017 0.9650
-6.7240 -5.6061 -1.7017 0.9650
-6.0000 -6.3750 -1.7017 0.9650
-5.1886 -7.0512 -1.7017 0.9650
-4.3017 -7.6247 -1.7017 0.9650
-3.3522 -8.0873 -1.7017 0.9650
-2.3538 -8.4321 -1.7017 0.9650
-1.3212 -8.6542 -1.7017 0.9650
-0.2694 -8.7503 -1.7017 0.9650
0.7863 -8.7191 -1.7017 0.9650
1.4694 -6.8718 -1.3659 0.9718
2.3816 -6.9221 -1.4229 0.9706
3.8244 -7.8749 -1.7017 0.9650
4.4320 -6.8718 -1.5895 0.9672
5.5964 -6.7321 -1.7017 0.9650
6.3664 -6.0092 -1.7017 0.9650
7.0437 -5.1988 -1.7017 0.9650
7.6185 -4.3127 -1.7017 0.9650
8.0824 -3.3638 -1.7017 0.9650
8.4287 -2.3660 -1.7017 0.9650
8.6523 -1.3337 -1.7017 0.9650
8.7499 -0.2820 -1.7017 0.9650
8.7202 0.7737 -1.7017 0.9650
8.5636 1.8183 -1.7017 0.9650
8.2823 2.8363 -1.7017 0.9650
7.8804 3.8131 -1.7017 0.9650
7.3639 4.7343 -1.7017 0.9650
6.7402 5.5867 -1.7017 0.9650
6.0183 6.3577 -1.7017 0.9650
5.2089 7.0362 -1.7017 0.9650
4.3236 7.6123 -1.7017 0.9650
3.0887 7.3913 -1.5571 0.9679
1.7919 6.3486 -1.2822 0.9735
1.2318 7.9154 -1.5571 0.9679
0.2877 8.5436 -1.6617 0.9658
-0.7612 8.7213 -1.7017 0.9650
-1.8059 8.5662 -1.7017 0.9650
-2.8244 8.2864 -1.7017 0.9650
-3.8017 7.8859 -1.7017 0.9650
-4.7237 7.3707 -1.7017 0.9650
-5.5770 6.7482 -1.7017 0.9650
-6.3491 6.0275 -1.7017 0.9650
-7.0287 5.2190 -1.7017 0.9650
-7.6061 4.3346 -1.7017 0.9650
-8.0727 3.3871 -1.7017 0.9650
-8.4219 2.3903 -1.7017 0.9650
-8.6484 1.3586 -1.7017 0.9650
-8.7491 0.3073 -1.7017 0.9650
-8.7224 -0.7486 -1.7017 0.9650
-8.5688 -1.7936 -1.7017 0.9650
-8.2904 -2.8124 -1.7017 0.9650
-7.8914 -3.7903 -1.7017 0.9650
-7.3775 -4.7131 -1.7017 0.9650
-6.7562 -5.5672 -1.7017 0.9650
-6.0366 -6.3404 -1.7017 0.9650
-5.2291 -7.0212 -1.7017 0.9650
-4.3455 -7.5998 -1.7017 0.9650
-3.3987 -8.0678 -1.7017 0.9650
-2.4024 -8.4184 -1.7017 0.9650
-1.3711 -8.6464 -1.7017 0.9650
-0.3199 -8.7486 -1.7017 0.9650
0.7360 -8.7235 -1.7017 0.9650
1.4280 -6.8718 -1.3643 0.9718
2.3369 -6.9214 -1.4200 0.9707
3.7790 -7.8969 -1.7017 0.9650
4.4478 -6.9844 -1.6095 0.9668
5.5575 -6.7643 -1.7017 0.9650
6.3317 -6.0458 -1.7017 0.9650
7.0136 -5.2392 -1.7017 0.9650
7.5936 -4.3565 -1.7017 0.9650
8.0629 -3.4103 -1.7017 0.9650
8.4149 -2.4145 -1.7017 0.9650
8.6445 -1.3836 -1.7017 0.9650
8.7482 -0.3325 -1.7017 0.9650
8.7245 0.7235 -1.7017 0.9650
8.5739 1.7689 -1.7017 0.9650
8.2985 2.7885 -1.7017 0.9650
7.9023 3.7676 -1.7017 0.9650
7.3911 4.6918 -1.7017 0.9650
6.7723 5.5478 -1.7017 0.9650
6.0549 6.3230 -1.7017 0.9650
5.2493 7.0061 -1.7017 0.9650
4.3674 7.5873 -1.7017 0.9650
3.1312 7.3734 -1.5571 0.9679
1.8314 6.3482 -1.2843 0.9734
1.2774 7.9082 -1.5571 0.9679
0.3157 8.0045 -1.5571 0.9679
-0.7109 8.7256 -1.7017 0.9650
-1.7565 8.5765 -1.7017 0.9650
-2.7766 8.3025 -1.7017 0.9650
-3.7562 7.9077 -1.7017 0.9650
-4.6812 7.3978 -1.7017 0.9650
-5.5380 6.7802 -1.7017 0.9650
-6.3142 6.0640 -1.7017 0.9650
-6.9985 5.2594 -1.7017 0.9650
-7.5810 4.3783 -1.7017 0.9650
-8.0531 3.4335 -1.7017 0.9650
-8.4079 2.4388 -1.7017 0.9650
-8.6404 1.4085 -1.7017 0.9650
-8.7472 0.3577 -1.7017 0.9650
-8.7266 -0.6983 -1.7017 0.9650
-8.5790 -1.7442 -1.7017 0.9650
-8.3065 -2.7646 -1.7017 0.9650
-7.9131 -3.7448 -1.7017 0.9650
-7.4045 -4.6705 -1.7017 0.9650
-6.7882 -5.5282 -1.7017 0.9650
-6.0730 -6.3055 -1.7017 0.9650
-5.2695 -6.9909 -1.7017 0.9650
-4.3893 -7.5746 -1.7017 0.9650
-3.4451 -8.0481 -1.7017 0.9650
-2.4509 -8.4044 -1.7017 0.9650
-1.4209 -8.6384 -1.7017 0.9650
-0.3703 -8.7467 -1.7017 0.9650
0.6858 -8.7276 -1.7017 0.9650
1.3868 -6.8718 -1.3627 0.9718
2.2920 -6.9199 -1.4170 0.9707
3.7334 -7.9185 -1.7017 0.9650
4.6598 -7.4113 -1.7017 0.9650
5.5184 -6.7962 -1.7017 0.9650
6.2967 -6.0821 -1.7017 0.9650
6.9833 -5.2796 -1.7017 0.9650
7.5683 -4.4002 -1.7017 0.9650
8.0431 -3.4567 -1.7017 0.9650
8.4009 -2.4630 -1.7017 0.9650
8.6364 -1.4333 -1.7017 0.9650
8.7461 -0.3829 -1.7017 0.9650
8.7286 0.6732 -1.7017 0.9650
8.5840 1.7194 -1.7017 0.9650
8.3144 2.7407 -1.7017 0.9650
7.9239 3.7220 -1.7017 0.9650
7.4180 4.6492 -1.7017 0.9650
6.8041 5.5086 -1.7017 0.9650
6.0912 6.2879 -1.7017 0.9650
5.2896 6.9757 -1.7017 0.9650
4.4111 7.5620 -1.7017 0.9650
3.1736 7.3552 -1.5571 0.9679
1.8711 6.3482 -1.2864 0.9734
1.3229 7.9007 -1.5571 0.9679
0.3619 8.0025 -1.5571 0.9679
-0.6606 8.7295 -1.7017 0.9650
-1.7071 8.5864 -1.7017 0.9650
-2.7287 8.3184 -1.7017 0.9650
-3.7106 7.9292 -1.7017 0.9650
-4.6385 7.4247 -1.7017 0.9650
-5.4988 6.8120 -1.7017 0.9650
-6.2792 6.1003 -1.7017 0.9650
-6.9681 5.2997 -1.7017 0.9650
-7.5556 4.4220 -1.7017 0.9650
-8.0332 3.4799 -1.7017 0.9650
-8.3938 2.4871 -1.7017 0.9650
-8.6322 1.4582 -1.7017 0.9650
-8.7450 0.4081 -1.7017 0.9650
-8.7305 -0.6480 -1.7017 0.9650
-8.5889 -1.6947 -1.7017 0.9650
-8.3223 -2.7167 -1.7017 0.9650
-7.9346 -3.6992 -1.7017 0.9650
-7.4313 -4.6278 -1.7017 0.9650
-6.8200 -5.4890 -1.7017 0.9650
-6.1093 -6.2704 -1.7017 0.9650
-5.3097 -6.9605 -1.7017 0.9650
-4.4328 -7.5492 -1.7017 0.9650
-3.4915 -8.0281 -1.7017 0.9650
-2.4992 -8.3902 -1.7017 0.9650
-1.4707 -8.6301 -1.7017 0.9650
-0.4207 -8.7444 -1.7017 0.9650
0.6355 -8.7314 -1.7017 0.9650
1.3456 -6.8718 -1.3611 0.9719
2.2474 -6.9184 -1.4140 0.9708
3.6877 -7.9399 -1.7017 0.9650
4.6171 -7.4380 -1.7017 0.9650
5.4792 -6.8278 -1.7017 0.9650
6.2616 -6.1183 -1.7017 0.9650
6.9528 -5.3197 -1.7017 0.9650
7.5428 -4.4437 -1.7017 0.9650
8.0231 -3.5030 -1.7017 0.9650
8.3865 -2.5113 -1.7017 0.9650
8.6280 -1.4831 -1.7017 0.9650
8.7438 -0.4332 -1.7017 0.9650
8.7323 0.6229 -1.7017 0.9650
8.5937 1.6700 -1.7017 0.9650
8.3301 2.6927 -1.7017 0.9650
7.9452 3.6763 -1.7017 0.9650
7.4446 4.6063 -1.7017 0.9650
6.8357 5.4693 -1.7017 0.9650
6.1273 6.2528 -1.7017 0.9650
5.3298 6.9451 -1.7017 0.9650
4.4546 7.5364 -1.7017 0.9650
3.2160 7.3368 -1.5571 0.9679
1.9269 6.4014 -1.2995 0.9731
1.3684 7.8929 -1.5571 0.9679
0.4080 8.0003 -1.5571 0.9679
-0.6103 8.7332 -1.7017 0.9650
-1.6576 8.5961 -1.7017 0.9650
-2.6807 8.3340 -1.7017 0.9650
-3.6648 7.9505 -1.7017 0.9650
-4.5956 7.4513 -1.7017 0.9650
-5.4595 6.8436 -1.7017 0.9650
-6.2439 6.1363 -1.7017 0.9650
-6.9374 5.3398 -1.7017 0.9650
-7.5300 4.4654 -1.7017 0.9650
-8.0130 3.5261 -1.7017 0.9650
-8.3793 2.5355 -1.7017 0.9650
-8.6236 1.5079 -1.7017 0.9650
-8.7425 0.4584 -1.7017 0.9650
-8.7341 -0.5977 -1.7017 0.9650
-8.5985 -1.6452 -1.7017 0.9650
-8.3378 -2.6687 -1.7017 0.9650
-7.9557 -3.6533 -1.7017 0.9650
-7.4579 -4.5848 -1.7017 0.9650
-6.8515 -5.4496 -1.7017 0.9650
-6.1453 -6.2351 -1.7017 0.9650
-5.3497 -6.9297 -1.7017 0.9650
-4.4763 -7.5235 -1.7017 0.9650
-3.5376 -8.0079 -1.7017 0.9650
-2.5475 -8.3756 -1.7017 0.9650
-1.5204 -8.6215 -1.7017 0.9650
-0.4710 -8.7418 -1.7017 0.9650
0.5851 -8.7349 -1.7017 0.9650
1.3183 -6.9443 -1.3739 0.9716
2.2029 -6.9169 -1.4110 0.9709
3.6419 -7.9610 -1.7017 0.9650
4.5741 -7.4645 -1.7017 0.9650
5.4397 -6.8593 -1.7017 0.9650
6.2262 -6.1543 -1.7017 0.9650
6.9220 -5.3597 -1.7017 0.9650
7.5171 -4.4871 -1.7017 0.9650
8.0028 -3.5492 -1.7017 0.9650
8.3719 -2.5596 -1.7017 0.9650
8.6193 -1.5328 -1.7017 0.9650
8.7411 -0.4836 -1.7017 0.9650
8.7357 0.5725 -1.7017 0.9650
8.6032 1.6204 -1.7017 0.9650
8.3455 2.6446 -1.7017 0.9650
7.9662 3.6304 -1.7017 0.9650
7.4711 4.5634 -1.7017 0.9650
6.8671 5.4299 -1.7017 0.9650
6.1633 6.2173 -1.7017 0.9650
5.3697 6.9143 -1.7017 0.9650
4.4979 7.5106 -1.7017 0.9650
3.2582 7.3182 -1.5571 0.9679
2.3532 7.6573 -1.5571 0.9679
1.4139 7.8849 -1.5571 0.9679
0.4556 8.0243 -1.5623 0.9678
-0.5600 8.7366 -1.7017 0.9650
-1.6080 8.6055 -1.7017 0.9650
-2.6326 8.3493 -1.7017 0.9650
-3.6190 7.9715 -1.7017 0.9650
-4.5526 7.4776 -1.7017 0.9650
-5.4200 6.8750 -1.7017 0.9650
-6.2085 6.1722 -1.7017 0.9650
-6.9066 5.3796 -1.7017 0.9650
-7.5042 4.5087 -1.7017 0.9650
-7.9925 3.5722 -1.7017 0.9650
-8.3645 2.5837 -1.7017 0.9650
-8.6148 1.5576 -1.7017 0.9650
-8.7397 0.5088 -1.7017 0.9650
-8.7374 -0.5474 -1.7017 0.9650
-8.6078 -1.5956 -1.7017 0.9650
-8.3530 -2.6206 -1.7017 0.9650
-7.9767 -3.6075 -1.7017 0.9650
-7.4842 -4.5418 -1.7017 0.9650
-6.8828 -5.4100 -1.7017 0.9650
-6.1811 -6.1996 -1.7017 0.9650
-5.3896 -6.8988 -1.7017 0.9650
-4.5195 -7.4976 -1.7017 0.9650
-3.5837 -7.9874 -1.7017 0.9650
-2.5958 -8.3608 -1.7017 0.9650
-1.5700 -8.6125 -1.7017 0.9650
-0.5214 -8.7389 -1.7017 0.9650
0.5348 -8.7381 -1.7017 0.9650
1.2729 -6.9228 -1.3682 0.9717
2.1587 -6.9156 -1.4082 0.9709
3.5960 -7.9819 -1.7017 0.9650
4.5310 -7.4907 -1.7017 0.9650
5.4001 -6.8905 -1.7017 0.9650
6.1906 -6.1901 -1.7017 0.9650
6.8911 -5.3995 -1.7017 0.9650
7.4911 -4.5303 -1.7017 0.9650
7.9822 -3.5953 -1.7017 0.9650
8.3570 -2.6078 -1.7017 0.9650
8.6103 -1.5824 -1.7017 0.9650
8.7382 -0.5340 -1.7017 0.9650
8.7389 0.5222 -1.7017 0.9650
8.6124 1.5708 -1.7017 0.9650
8.3606 2.5965 -1.7017 0.9650
7.9870 3.5845 -1.7017 0.9650
7.4972 4.5203 -1.7017 0.9650
6.8394 5.3442 -1.6872 0.9652
6.1990 6.1817 -1.7017 0.9650
5.4094 6.8832 -1.7017 0.9650
4.5411 7.4846 -1.7017 0.9650
3.3003 7.2993 -1.5571 0.9679
2.3973 7.6436 -1.5571 0.9679
1.4593 7.8766 -1.5571 0.9679
0.5001 7.9951 -1.5571 0.9679
-0.5096 8.7396 -1.7017 0.9650
-1.5584 8.6147 -1.7017 0.9650
-2.5845 8.3643 -1.7017 0.9650
-3.5730 7.9922 -1.7017 0.9650
-4.5094 7.5037 -1.7017 0.9650
-5.3803 6.9061 -1.7017 0.9650
-6.1728 6.2079 -1.7017 0.9650
-6.8754 5.4194 -1.7017 0.9650
-7.4780 4.5519 -1.7017 0.9650
-7.9718 3.6182 -1.7017 0.9650
-8.3495 2.6319 -1.7017 0.9650
-8.6057 1.6072 -1.7017 0.9650
-8.7366 0.5592 -1.7017 0.9650
-8.7404 -0.4970 -1.7017 0.9650
-8.6169 -1.5460 -1.7017 0.9650
-8.3680 -2.5724 -1.7017 0.9650
-7.9973 -3.5614 -1.7017 0.9650
-7.5102 -4.4986 -1.7017 0.9650
-6.9138 -5.3703 -1.7017 0.9650
-6.2168 -6.1638 -1.7017 0.9650
-5.4292 -6.8676 -1.7017 0.9650
-4.5627 -7.4715 -1.7017 0.9650
-3.6297 -7.9666 -1.7017 0.9650
-2.6439 -8.3457 -1.7017 0.9650
-1.6196 -8.6034 -1.7017 0.9650
-0.5718 -8.7358 -1.7017 0.9650
0.4844 -8.7411 -1.7017 0.9650
1.2352 -6.9424 -1.3707 0.9717
2.1148 -6.9149 -1.4056 0.9710
3.0668 -6.9133 -1.4701 0.9697
4.4878 -7.5167 -1.7017 0.9650
5.3603 -6.9216 -1.7017 0.9650
6.1549 -6.2256 -1.7017 0.9650
6.8598 -5.4391 -1.7017 0.9650
7.4649 -4.5734 -1.7017 0.9650
7.9613 -3.6412 -1.7017 0.9650
8.3419 -2.6559 -1.7017 0.9650
8.6010 -1.6320 -1.7017 0.9650
8.7350 -0.5843 -1.7017 0.9650
8.7418 0.4718 -1.7017 0.9650
8.6213 1.5212 -1.7017 0.9650
8.3754 2.5483 -1.7017 0.9650
8.0076 3.5384 -1.7017 0.9650
7.5232 4.4769 -1.7017 0.9650
6.8678 5.3029 -1.6866 0.9653
6.2345 6.1459 -1.7017 0.9650
5.4490 6.8520 -1.7017 0.9650
4.5842 7.4583 -1.7017 0.9650
3.3423 7.2801 -1.5571 0.9679
2.4413 7.6296 -1.5571 0.9679
1.5047 7.8681 -1.5571 0.9679
0.5462 7.9920 -1.5571 0.9679
-0.4593 8.7424 -1.7017 0.9650
-1.5087 8.6235 -1.7017 0.9650
-2.5362 8.3791 -1.7017 0.9650
-3.5268 8.0127 -1.7017 0.9650
-4.4661 7.5296 -1.7017 0.9650
-5.3404 6.9370 -1.7017 0.9650
-6.1369 6.2434 -1.7017 0.9650
-6.8441 5.4589 -1.7017 0.9650
-7.4517 4.5949 -1.7017 0.9650
-7.9508 3.6641 -1.7017 0.9650
-8.3342 2.6799 -1.7017 0.9650
-8.5963 1.6568 -1.7017 0.9650
-8.7332 0.6095 -1.7017 0.9650
-8.7431 -0.4467 -1.7017 0.9650
-8.6257 -1.4963 -1.7017 0.9650
-8.3827 -2.5242 -1.7017 0.9650
-8.0177 -3.5153 -1.7017 0.9650
-7.5360 -4.4552 -1.7017 0.9650
-6.9447 -5.3304 -1.7017 0.9650
-6.2522 -6.1279 -1.7017 0.9650
-5.4687 -6.8362 -1.7017 0.9650
-4.6057 -7.4451 -1.7017 0.9650
-3.6755 -7.9455 -1.7017 0.9650
-2.6919 -8.3303 -1.7017 0.9650
-1.6692 -8.5939 -1.7017 0.9650
-0.6221 -8.7323 -1.7017 0.9650
0.4340 -8.7437 -1.7017 0.9650
1.1972 -6.9613 -1.3730 0.9716
2.0883 -6.9716 -1.4146 0.9708
3.0191 -6.9130 -1.4663 0.9697
4.4444 -7.5424 -1.7017 0.9650
5.3204 -6.9523 -1.7017 0.9650
6.1189 -6.2610 -1.7017 0.9650
6.8283 -5.4786 -1.7017 0.9650
7.4384 -4.6164 -1.7017 0.9650
7.9402 -3.6870 -1.7017 0.9650
8.3264 -2.7039 -1.7017 0.9650
8.5915 -1.6815 -1.7017 0.9650
8.7314 -0.6347 -1.7017 0.9650
8.7443 0.4214 -1.7017 0.9650
8.6299 1.4714 -1.7017 0.9650
8.3899 2.5000 -1.7017 0.9650
8.0278 3.4922 -1.7017 0.9650
7.5488 4.4335 -1.7017 0.9650
6.8959 5.2615 -1.6860 0.9653
6.2698 6.1099 -1.7017 0.9650
5.4884 6.8205 -1.7017 0.9650
4.6271 7.4318 -1.7017 0.9650
3.3842 7.2608 -1.5571 0.9679
2.4852 7.6154 -1.5571 0.9679
1.5500 7.8593 -1.5571 0.9679
0.5923 7.9888 -1.5571 0.9679
-0.4088 8.7449 -1.7017 0.9650
-1.4590 8.6321 -1.7017 0.9650
-2.4879 8.3935 -1.7017 0.9650
-3.4806 8.0328 -1.7017 0.9650
-4.4227 7.5552 -1.7017 0.9650
-5.3003 6.9676 -1.7017 0.9650
-6.1008 6.2786 -1.7017 0.9650
-6.8125 5.4982 -1.7017 0.9650
-7.4251 4.6378 -1.7017 0.9650
-7.9296 3.7098 -1.7017 0.9650
-8.3186 2.7279 -1.7017 0.9650
-8.5866 1.7063 -1.7017 0.9650
-8.7296 0.6598 -1.7017 0.9650
-8.7455 -0.3962 -1.7017 0.9650
-8.6341 -1.4466 -1.7017 0.9650
-8.3971 -2.4758 -1.7017 0.9650
-8.0378 -3.4690 -1.7017 0.9650
-7.5616 -4.4118 -1.7017 0.9650
-6.9752 -5.2903 -1.7017 0.9650
-6.2874 -6.0918 -1.7017 0.9650
-5.5080 -6.8046 -1.7017 0.9650
-4.6485 -7.4184 -1.7017 0.9650
-3.7213 -7.9242 -1.7017 0.9650
-2.7399 -8.3147 -1.7017 0.9650
-1.7187 -8.5841 -1.7017 0.9650
-0.6724 -8.7286 -1.7017 0.9650
0.3836 -8.7461 -1.7017 0.9650
1.1589 -6.9791 -1.3752 0.9716
2.0154 -6.8718 -1.3920 0.9712
2.9717 -6.9128 -1.4626 0.9698
4.4009 -7.5679 -1.7017 0.9650
5.2802 -6.9829 -1.7017 0.9650
6.0827 -6.2962 -1.7017 0.9650
6.7967 -5.5178 -1.7017 0.9650
7.4117 -4.6592 -1.7017 0.9650
7.9188 -3.7327 -1.7017 0.9650
8.3107 -2.7519 -1.7017 0.9650
8.5816 -1.7310 -1.7017 0.9650
8.7276 -0.6850 -1.7017 0.9650
8.7466 0.3711 -1.7017 0.9650
8.6383 1.4217 -1.7017 0.9650
8.4042 2.4516 -1.7017 0.9650
8.0478 3.4459 -1.7017 0.9650
7.5742 4.3900 -1.7017 0.9650
6.9319 5.2260 -1.6874 0.9652
6.3049 6.0736 -1.7017 0.9650
5.5276 6.7887 -1.7017 0.9650
4.6698 7.4050 -1.7017 0.9650
3.4260 7.2411 -1.5571 0.9679
2.5290 7.6010 -1.5571 0.9679
1.5953 7.8502 -1.5571 0.9679
0.6383 7.9852 -1.5571 0.9679
-0.3585 8.7471 -1.7017 0.9650
-1.4092 8.6403 -1.7017 0.9650
-2.4395 8.4077 -1.7017 0.9650
-3.4343 8.0528 -1.7017 0.9650
-4.3791 7.5806 -1.7017 0.9650
-5.2601 6.9981 -1.7017 0.9650
-6.0645 6.3137 -1.7017 0.9650
-6.7807 5.5374 -1.7017 0.9650
-7.3982 4.6805 -1.7017 0.9650
-7.9081 3.7555 -1.7017 0.9650
-8.3028 2.7758 -1.7017 0.9650
-8.5766 1.7557 -1.7017 0.9650
-8.7256 0.7101 -1.7017 0.9650
-8.7477 -0.3459 -1.7017 0.9650
-8.6423 -1.3968 -1.7017 0.9650
-8.4112 -2.4274 -1.7017 0.9650
-8.0577 -3.4227 -1.7017 0.9650
-7.5869 -4.3681 -1.7017 0.9650
-7.0056 -5.2500 -1.7017 0.9650
-6.3224 -6.0554 -1.7017 0.9650
-5.5472 -6.7727 -1.7017 0.9650
-4.6912 -7.3915 -1.7017 0.9650
-3.7669 -7.9026 -1.7017 0.9650
-2.7878 -8.2988 -1.7017 0.9650
-1.7681 -8.5741 -1.7017 0.9650
-0.7227 -8.7246 -1.7017 0.9650
0.3333 -8.7481 -1.7017 0.9650
1.1250 -7.0249 -1.3829 0.9714
1.9724 -6.8718 -1.3897 0.9713
2.9245 -6.9126 -1.4590 0.9699
4.3572 -7.5932 -1.7017 0.9650
5.2399 -7.0132 -1.7017 0.9650
6.0463 -6.3311 -1.7017 0.9650
6.7648 -5.5569 -1.7017 0.9650
7.3847 -4.7018 -1.7017 0.9650
7.8972 -3.7783 -1.7017 0.9650
8.2947 -2.7998 -1.7017 0.9650
8.5715 -1.7804 -1.7017 0.9650
8.7235 -0.7353 -1.7017 0.9650
8.7486 0.3207 -1.7017 0.9650
8.6463 1.3719 -1.7017 0.9650
8.4182 2.4031 -1.7017 0.9650
8.0675 3.3994 -1.7017 0.9650
7.5995 4.3462 -1.7017 0.9650
6.9669 5.1897 -1.6887 0.9652
6.3398 6.0372 -1.7017 0.9650
5.5666 6.7567 -1.7017 0.9650
4.7125 7.3779 -1.7017 0.9650
3.4677 7.2212 -1.5571 0.9679
2.5728 7.5863 -1.5571 0.9679
1.6405 7.8409 -1.5571 0.9679
0.6843 7.9814 -1.5571 0.9679
-0.3080 8.7491 -1.7017 0.9650
-1.3594 8.6483 -1.7017 0.9650
-2.3910 8.4217 -1.7017 0.9650
-3.3878 8.0724 -1.7017 0.9650
-4.3352 7.6057 -1.7017 0.9650
-5.2197 7.0282 -1.7017 0.9650
-6.0280 6.3485 -1.7017 0.9650
-6.7487 5.5764 -1.7017 0.9650
-7.3711 4.7231 -1.7017 0.9650
-7.8863 3.8011 -1.7017 0.9650
-8.2866 2.8236 -1.7017 0.9650
-8.5663 1.8052 -1.7017 0.9650
-8.7214 0.7604 -1.7017 0.9650
-1.8999 -7.1218 -1.7017 0.9702
-1.0284 -7.2988 -1.7017 0.9702
-0.1419 -7.3695 -1.7017 0.9702
0.7466 -7.3330 -1.7017 0.9702
1.5524 -6.8718 -1.6265 0.9715
2.4782 -6.9418 -1.7017 0.9702
3.2962 -6.5928 -1.7017 0.9702
4.0661 -6.1479 -1.7017 0.9702
4.7769 -5.6134 -1.7017 0.9702
5.4182 -4.9973 -1.7017 0.9702
5.9805 -4.3085 -1.7017 0.9702
6.4559 -3.5569 -1.7017 0.9702
6.8372 -2.7535 -1.7017 0.9702
7.1191 -1.9101 -1.7017 0.9702
7.2973 -1.0389 -1.7017 0.9702
7.3693 -0.1525 -1.7017 0.9702
7.3340 0.7360 -1.7017 0.9702
7.1920 1.6139 -1.7017 0.9702
6.9453 2.4682 -1.7017 0.9702
6.5975 3.2867 -1.7017 0.9702
6.1537 4.0573 -1.7017 0.9702
5.6203 4.7688 -1.7017 0.9702
5.0051 5.4110 -1.7017 0.9702
4.3171 5.9743 -1.7017 0.9702
3.2632 5.9027 -1.5571 0.9727
2.5286 6.2527 -1.5571 0.9727
1.6964 6.2865 -1.5033 0.9736
0.9602 6.6759 -1.5571 0.9727
0.1632 7.3691 -1.7017 0.9702
-0.7254 7.3351 -1.7017 0.9702
-1.6035 7.1943 -1.7017 0.9702
-2.4582 6.9489 -1.7017 0.9702
-3.2772 6.6023 -1.7017 0.9702
-4.0484 6.1596 -1.7017 0.9702
-4.7607 5.6272 -1.7017 0.9702
-5.4037 5.0129 -1.7017 0.9702
-5.9681 4.3257 -1.7017 0.9702
-6.4456 3.5755 -1.7017 0.9702
-6.8293 2.7733 -1.7017 0.9702
-7.1135 1.9306 -1.7017 0.9702
-7.2943 1.0599 -1.7017 0.9702
-7.3688 0.1738 -1.7017 0.9702
-7.3361 -0.7149 -1.7017 0.9702
-7.1966 -1.5931 -1.7017 0.9702
-6.9524 -2.4482 -1.7017 0.9702
-6.6070 -3.2677 -1.7017 0.9702
-6.1654 -4.0395 -1.7017 0.9702
-5.6340 -4.7526 -1.7017 0.9702
-5.0207 -5.3965 -1.7017 0.9702
-4.3343 -5.9619 -1.7017 0.9702
-3.5848 -6.4404 -1.7017 0.9702
-2.7831 -6.8253 -1.7017 0.9702
-1.9409 -7.1107 -1.7017 0.9702
-1.0704 -7.2927 -1.7017 0.9702
-0.1844 -7.3686 -1.7017 0.9702
0.7043 -7.3371 -1.7017 0.9702
1.5109 -6.8718 -1.6244 0.9715
2.4382 -6.9559 -1.7017 0.9702
3.2581 -6.6117 -1.7017 0.9702
4.0306 -6.1712 -1.7017 0.9702
4.7445 -5.6409 -1.7017 0.9702
5.3893 -5.0285 -1.7017 0.9702
5.9556 -4.3429 -1.7017 0.9702
6.4353 -3.5940 -1.7017 0.9702
6.8213 -2.7929 -1.7017 0.9702
7.1079 -1.9511 -1.7017 0.9702
7.2912 -1.0809 -1.7017 0.9702
7.3683 -0.1950 -1.7017 0.9702
7.3382 0.6938 -1.7017 0.9702
7.2012 1.5724 -1.7017 0.9702
6.9594 2.4282 -1.7017 0.9702
6.6164 3.2486 -1.7017 0.9702
6.1770 4.0218 -1.7017 0.9702
5.6477 4.7364 -1.7017 0.9702
5.0362 5.3820 -1.7017 0.9702
4.3514 5.9494 -1.7017 0.9702
3.2972 5.8838 -1.5571 0.9727
2.5646 6.2380 -1.5571 0.9727
1.7353 6.2864 -1.5056 0.9736
0.9987 6.6703 -1.5571 0.9727
0.2056 7.3680 -1.7017 0.9702
-0.6832 7.3391 -1.7017 0.9702
-1.5620 7.2035 -1.7017 0.9702
-2.4182 6.9629 -1.7017 0.9702
-3.2391 6.6210 -1.7017 0.9702
-4.0129 6.1828 -1.7017 0.9702
-4.7282 5.6545 -1.7017 0.9702
-5.3748 5.0440 -1.7017 0.9702
-5.9431 4.3600 -1.7017 0.9702
-6.4249 3.6126 -1.7017 0.9702
-6.8132 2.8125 -1.7017 0.9702
-7.1023 1.9716 -1.7017 0.9702
-7.2880 1.1019 -1.7017 0.9702
-7.3677 0.2162 -1.7017 0.9702
-7.3401 -0.6726 -1.7017 0.9702
-7.2057 -1.5517 -1.7017 0.9702
-6.9664 -2.4081 -1.7017 0.9702
-6.6257 -3.2295 -1.7017 0.9702
-6.1886 -4.0039 -1.7017 0.9702
-5.6613 -4.7201 -1.7017 0.9702
-5.0517 -5.3675 -1.7017 0.9702
-4.3686 -5.9368 -1.7017 0.9702
-3.6218 -6.4197 -1.7017 0.9702
-2.8224 -6.8091 -1.7017 0.9702
-1.9818 -7.0994 -1.7017 0.9702
-1.1124 -7.2864 -1.7017 0.9702
-0.2269 -7.3674 -1.7017 0.9702
0.6620 -7.3411 -1.7017 0.9702
1.4694 -6.8718 -1.6224 0.9716
2.3981 -6.9699 -1.7017 0.9702
3.2200 -6.6303 -1.7017 0.9702
3.9950 -6.1943 -1.7017 0.9702
4.7119 -5.6681 -1.7017 0.9702
5.3602 -5.0594 -1.7017 0.9702
5.9305 -4.3771 -1.7017 0.9702
6.4144 -3.6311 -1.7017 0.9702
6.8050 -2.8322 -1.7017 0.9702
7.0966 -1.9920 -1.7017 0.9702
7.2848 -1.1229 -1.7017 0.9702
7.3670 -0.2375 -1.7017 0.9702
7.3420 0.6515 -1.7017 0.9702
7.2101 1.5309 -1.7017 0.9702
6.9733 2.3880 -1.7017 0.9702
6.6350 3.2104 -1.7017 0.9702
6.2001 3.9861 -1.7017 0.9702
5.6749 4.7037 -1.7017 0.9702
5.0671 5.3529 -1.7017 0.9702
4.3856 5.9242 -1.7017 0.9702
3.3310 5.8647 -1.5571 0.9727
2.6005 6.2231 -1.5571 0.9727
1.7744 6.2862 -1.5080 0.9735
1.0371 6.6644 -1.5571 0.9727
0.2481 7.3667 -1.7017 0.9702
-0.6409 7.3430 -1.7017 0.9702
-1.5205 7.2124 -1.7017 0.9702
-2.3780 6.9767 -1.7017 0.9702
-3.2009 6.6396 -1.7017 0.9702
-3.9772 6.2058 -1.7017 0.9702
-4.6956 5.6817 -1.7017 0.9702
-5.3456 5.0749 -1.7017 0.9702
-5.9179 4.3942 -1.7017 0.9702
-6.4040 3.6495 -1.7017 0.9702
-6.7969 2.8518 -1.7017 0.9702
-7.0908 2.0125 -1.7017 0.9702
-7.2816 1.1439 -1.7017 0.9702
-7.3663 0.2587 -1.7017 0.9702
-7.3439 -0.6303 -1.7017 0.9702
-7.2145 -1.5101 -1.7017 0.9702
-6.9802 -2.3679 -1.7017 0.9702
-6.6442 -3.1913 -1.7017 0.9702
-6.2115 -3.9682 -1.7017 0.9702
-5.6884 -4.6874 -1.7017 0.9702
-5.0826 -5.3383 -1.7017 0.9702
-4.4027 -5.9115 -1.7017 0.9702
-3.6587 -6.3987 -1.7017 0.9702
-2.8615 -6.7927 -1.7017 0.9702
-2.0227 -7.0879 -1.7017 0.9702
-1.1544 -7.2799 -1.7017 0.9702
-0.2693 -7.3659 -1.7017 0.9702
0.6197 -7.3448 -1.7017 0.9702
1.4997 -7.2167 -1.7017 0.9702
2.3579 -6.9836 -1.7017 0.9702
3.1817 -6.6488 -1.7017 0.9702
3.9593 -6.2172 -1.7017 0.9702
4.6792 -5.6952 -1.7017 0.9702
5.3310 -5.0902 -1.7017 0.9702
5.9052 -4.4112 -1.7017 0.9702
6.3934 -3.6680 -1.7017 0.9702
6.7886 -2.8713 -1.7017 0.9702
7.0850 -2.0329 -1.7017 0.9702
7.2782 -1.1649 -1.7017 0.9702
7.3656 -0.2799 -1.7017 0.9702
7.3457 0.6091 -1.7017 0.9702
7.2188 1.4893 -1.7017 0.9702
6.9869 2.3478 -1.7017 0.9702
6.6534 3.1722 -1.7017 0.9702
6.2229 3.9503 -1.7017 0.9702
5.7019 4.6710 -1.7017 0.9702
5.0979 5.3236 -1.7017 0.9702
4.4197 5.8988 -1.7017 0.9702
3.3912 5.8914 -1.5694 0.9725
2.6363 6.2080 -1.5571 0.9727
1.8135 6.2861 -1.5105 0.9735
1.0755 6.6583 -1.5571 0.9727
0.2861 7.2529 -1.6758 0.9706
-0.5985 7.3465 -1.7017 0.9702
-1.4789 7.2210 -1.7017 0.9702
-2.3378 6.9903 -1.7017 0.9702
-3.1626 6.6579 -1.7017 0.9702
-3.9413 6.2286 -1.7017 0.9702
-4.6627 5.7087 -1.7017 0.9702
-5.3163 5.1056 -1.7017 0.9702
-5.8924 4.4282 -1.7017 0.9702
-6.3828 3.6864 -1.7017 0.9702
-6.7803 2.8909 -1.7017 0.9702
-7.0791 2.0533 -1.7017 0.9702
-7.2749 1.1858 -1.7017 0.9702
-7.3647 0.3011 -1.7017 0.9702
-7.3474 -0.5880 -1.7017 0.9702
-7.2231 -1.4685 -1.7017 0.9702
-6.9937 -2.3277 -1.7017 0.9702
-6.6625 -3.1529 -1.7017 0.9702
-6.2343 -3.9323 -1.7017 0.9702
-5.7154 -4.6545 -1.7017 0.9702
-5.1132 -5.3089 -1.7017 0.9702
-4.4367 -5.8860 -1.7017 0.9702
-3.6956 -6.3775 -1.7017 0.9702
-2.9006 -6.7761 -1.7017 0.9702
-2.0635 -7.0761 -1.7017 0.9702
-1.1963 -7.2731 -1.7017 0.9702
-0.3117 -7.3643 -1.7017 0.9702
0.5774 -7.3482 -1.7017 0.9702
1.4581 -7.2252 -1.7017 0.9702
2.3176 -6.9970 -1.7017 0.9702
3.1434 -6.6670 -1.7017 0.9702
3.9234 -6.2399 -1.7017 0.9702
4.6463 -5.7221 -1.7017 0.9702
5.3016 -5.1209 -1.7017 0.9702
5.8796 -4.4452 -1.7017 0.9702
6.3722 -3.7047 -1.7017 0.9702
6.7720 -2.9104 -1.7017 0.9702
7.0732 -2.0737 -1.7017 0.9702
7.2714 -1.2068 -1.7017 0.9702
7.3638 -0.3223 -1.7017 0.9702
7.3490 0.5668 -1.7017 0.9702
7.2273 1.4477 -1.7017 0.9702
7.0004 2.3075 -1.7017 0.9702
6.6715 3.1338 -1.7017 0.9702
6.2456 3.9144 -1.7017 0.9702
5.7287 4.6380 -1.7017 0.9702
5.1285 5.2942 -1.7017 0.9702
4.4536 5.8732 -1.7017 0.9702
3.7139 6.3668 -1.7017 0.9702
2.6721 6.1928 -1.5571 0.9727
1.8528 6.2860 -1.5130 0.9735
1.1139 6.6520 -1.5571 0.9727
0.3141 6.9462 -1.6053 0.9719
-0.5562 7.3499 -1.7017 0.9702
-1.4373 7.2294 -1.7017 0.9702
-2.2974 7.0037 -1.7017 0.9702
-3.1241 6.6760 -1.7017 0.9702
-3.9054 6.2512 -1.7017 0.9702
-4.6298 5.7354 -1.7017 0.9702
-5.2868 5.1361 -1.7017 0.9702
-5.8668 4.4621 -1.7017 0.9702
-6.3615 3.7231 -1.7017 0.9702
-6.7635 2.9299 -1.7017 0.9702
-7.0672 2.0941 -1.7017 0.9702
-7.2679 1.2278 -1.7017 0.9702
-7.3629 0.3436 -1.7017 0.9702
-7.3507 -0.5456 -1.7017 0.9702
-7.2314 -1.4269 -1.7017 0.9702
-7.0070 -2.2873 -1.7017 0.9702
-6.6805 -3.1145 -1.7017 0.9702
-6.2568 -3.8964 -1.7017 0.9702
-5.7421 -4.6215 -1.7017 0.9702
-5.1437 -5.2794 -1.7017 0.9702
-4.4705 -5.8604 -1.7017 0.9702
-3.7322 -6.3561 -1.7017 0.9702
-2.9397 -6.7593 -1.7017 0.9702
-2.1043 -7.0641 -1.7017 0.9702
-1.2382 -7.2661 -1.7017 0.9702
-0.3542 -7.3624 -1.7017 0.9702
0.5350 -7.3514 -1.7017 0.9702
1.4164 -7.2335 -1.7017 0.9702
2.2772 -7.0103 -1.7017 0.9702
3.1049 -6.6850 -1.7017 0.9702
3.8873 -6.2625 -1.7017 0.9702
4.6132 -5.7487 -1.7017 0.9702
5.2720 -5.1513 -1.7017 0.9702
5.8539 -4.4790 -1.7017 0.9702
6.3507 -3.7414 -1.7017 0.9702
6.7551 -2.9494 -1.7017 0.9702
7.0611 -2.1144 -1.7017 0.9702
7.2643 -1.2487 -1.7017 0.9702
7.3618 -0.3648 -1.7017 0.9702
7.3522 0.5244 -1.7017 0.9702
7.2355 1.4060 -1.7017 0.9702
7.0135 2.2671 -1.7017 0.9702
6.6895 3.0953 -1.7017 0.9702
6.2680 3.8783 -1.7017 0.9702
5.7554 4.6049 -1.7017 0.9702
5.1589 5.2645 -1.7017 0.9702
4.4874 5.8475 -1.7017 0.9702
3.7505 6.3453 -1.7017 0.9702
2.7077 6.1773 -1.5571 0.9727
1.8922 6.2859 -1.5155 0.9734
1.1522 6.6455 -1.5571 0.9727
0.3448 6.7608 -1.5629 0.9726
-0.5138 7.3530 -1.7017 0.9702
-1.3956 7.2376 -1.7017 0.9702
-2.2570 7.0168 -1.7017 0.9702
-3.0856 6.6940 -1.7017 0.9702
-3.8693 6.2736 -1.7017 0.9702
-4.5966 5.7620 -1.7017 0.9702
-5.2571 5.1665 -1.7017 0.9702
-5.8410 4.4958 -1.7017 0.9702
-6.3399 3.7597 -1.7017 0.9702
-6.7465 2.9688 -1.7017 0.9702
-7.0550 2.1348 -1.7017 0.9702
-7.2607 1.2696 -1.7017 0.9702
-7.3608 0.3860 -1.7017 0.9702
-7.3537 -0.5033 -1.7017 0.9702
-7.2395 -1.3852 -1.7017 0.9702
-7.0201 -2.2469 -1.7017 0.9702
-6.6984 -3.0759 -1.7017 0.9702
-6.2792 -3.8602 -1.7017 0.9702
-5.7686 -4.5883 -1.7017 0.9702
-5.1741 -5.2496 -1.7017 0.9702
-4.5042 -5.8345 -1.7017 0.9702
-3.7688 -6.3345 -1.7017 0.9702
-2.9785 -6.7423 -1.7017 0.9702
-2.1449 -7.0519 -1.7017 0.9702
-1.2801 -7.2589 -1.7017 0.9702
-0.3966 -7.3602 -1.7017 0.9702
0.4927 -7.3544 -1.7017 0.9702
1.3747 -7.2415 -1.7017 0.9702
2.2368 -7.0233 -1.7017 0.9702
3.0663 -6.7028 -1.7017 0.9702
3.8512 -6.2847 -1.7017 0.9702
4.5800 -5.7752 -1.7017 0.9702
5.2422 -5.1816 -1.7017 0.9702
5.8280 -4.5126 -1.7017 0.9702
6.3291 -3.7779 -1.7017 0.9702
6.7380 -2.9882 -1.7017 0.9702
7.0488 -2.1551 -1.7017 0.9702
7.2570 -1.2905 -1.7017 0.9702
7.3596 -0.4072 -1.7017 0.9702
7.3551 0.4820 -1.7017 0.9702
7.2435 1.3643 -1.7017 0.9702
7.0265 2.2267 -1.7017 0.9702
6.7072 3.0566 -1.7017 0.9702
6.2903 3.8421 -1.7017 0.9702
5.7818 4.5717 -1.7017 0.9702
5.1892 5.2347 -1.7017 0.9702
4.5210 5.8215 -1.7017 0.9702
3.7870 6.3236 -1.7017 0.9702
2.7432 6.1616 -1.5571 0.9727
1.9320 6.2867 -1.5184 0.9734
1.1904 6.6387 -1.5571 0.9727
0.3823 6.7338 -1.5571 0.9727
-0.4714 7.3558 -1.7017 0.9702
-1.3539 7.2455 -1.7017 0.9702
-2.2166 7.0297 -1.7017 0.9702
-3.0470 6.7116 -1.7017 0.9702
-3.8331 6.2958 -1.7017 0.9702
-4.5634 5.7884 -1.7017 0.9702
-5.2272 5.1967 -1.7017 0.9702
-5.8150 4.5294 -1.7017 0.9702
-6.3182 3.7962 -1.7017 0.9702
-6.7293 3.0076 -1.7017 0.9702
-7.0426 2.1754 -1.7017 0.9702
-7.2533 1.3114 -1.7017 0.9702
-7.3584 0.4284 -1.7017 0.9702
-7.3565 -0.4609 -1.7017 0.9702
-7.2474 -1.3434 -1.7017 0.9702
-7.0329 -2.2064 -1.7017 0.9702
-6.7160 -3.0373 -1.7017 0.9702
-6.3013 -3.8240 -1.7017 0.9702
-5.7950 -4.5550 -1.7017 0.9702
-5.2042 -5.2197 -1.7017 0.9702
-4.5378 -5.8085 -1.7017 0.9702
-3.8052 -6.3127 -1.7017 0.9702
-3.0173 -6.7250 -1.7017 0.9702
-2.1855 -7.0394 -1.7017 0.9702
-1.3219 -7.2514 -1.7017 0.9702
-0.4390 -7.3578 -1.7017 0.9702
0.4503 -7.3571 -1.7017 0.9702
1.3330 -7.2493 -1.7017 0.9702
2.1963 -7.0360 -1.7017 0.9702
3.0276 -6.7204 -1.7017 0.9702
3.8149 -6.3068 -1.7017 0.9702
4.5467 -5.8015 -1.7017 0.9702
5.2122 -5.2117 -1.7017 0.9702
5.8019 -4.5461 -1.7017 0.9702
6.3072 -3.8143 -1.7017 0.9702
6.7206 -3.0270 -1.7017 0.9702
7.0362 -2.1957 -1.7017 0.9702
7.2495 -1.3323 -1.7017 0.9702
7.3571 -0.4496 -1.7017 0.9702
7.3577 0.4397 -1.7017 0.9702
7.2512 1.3225 -1.7017 0.9702
7.0392 2.1862 -1.7017 0.9702
6.7247 3.0180 -1.7017 0.9702
6.3123 3.8058 -1.7017 0.9702
5.8081 4.5383 -1.7017 0.9702
5.2193 5.2047 -1.7017 0.9702
4.5545 5.7954 -1.7017 0.9702
3.8234 6.3017 -1.7017 0.9702
2.7787 6.1456 -1.5571 0.9727
1.9797 6.3121 -1.5272 0.9732
1.2287 6.6318 -1.5571 0.9727
0.4211 6.7315 -1.5571 0.9727
-0.4291 7.3584 -1.7017 0.9702
-1.3121 7.2532 -1.7017 0.9702
-2.1760 7.0424 -1.7017 0.9702
-3.0083 6.7290 -1.7017 0.9702
-3.7967 6.3178 -1.7017 0.9702
-4.5299 5.8146 -1.7017 0.9702
-5.1972 5.2268 -1.7017 0.9702
-5.7888 4.5628 -1.7017 0.9702
-6.2962 3.8325 -1.7017 0.9702
-6.7119 3.0464 -1.7017 0.9702
-7.0299 2.2159 -1.7017 0.9702
-7.2456 1.3532 -1.7017 0.9702
-7.3558 0.4708 -1.7017 0.9702
-7.3590 -0.4185 -1.7017 0.9702
-7.2550 -1.3016 -1.7017 0.9702
-7.0455 -2.1659 -1.7017 0.9702
-6.7334 -2.9986 -1.7017 0.9702
-6.3233 -3.7876 -1.7017 0.9702
-5.8211 -4.5215 -1.7017 0.9702
-5.2342 -5.1896 -1.7017 0.9702
-4.5712 -5.7822 -1.7017 0.9702
-3.8416 -6.2906 -1.7017 0.9702
-3.0561 -6.7075 -1.7017 0.9702
-2.2260 -7.0267 -1.7017 0.9702
-1.3636 -7.2436 -1.7017 0.9702
-0.4814 -7.3551 -1.7017 0.9702
0.4079 -7.3596 -1.7017 0.9702
1.2912 -7.2569 -1.7017 0.9702
2.1557 -7.0486 -1.7017 0.9702
2.9889 -6.7377 -1.7017 0.9702
3.7785 -6.3287 -1.7017 0.9702
4.5131 -5.8276 -1.7017 0.9702
5.1821 -5.2417 -1.7017 0.9702
5.7756 -4.5795 -1.7017 0.9702
6.2851 -3.8506 -1.7017 0.9702
6.7031 -3.0657 -1.7017 0.9702
7.0235 -2.2362 -1.7017 0.9702
7.2417 -1.3741 -1.7017 0.9702
7.3544 -0.4920 -1.7017 0.9702
7.3602 0.3973 -1.7017 0.9702
7.2587 1.2807 -1.7017 0.9702
7.0517 2.1456 -1.7017 0.9702
6.7420 2.9791 -1.7017 0.9702
6.3342 3.7694 -1.7017 0.9702
5.8341 4.5047 -1.7017 0.9702
5.2492 5.1746 -1.7017 0.9702
4.5878 5.7690 -1.7017 0.9702
3.8597 6.2795 -1.7017 0.9702
2.8141 6.1295 -1.5571 0.9727
2.0554 6.4238 -1.5571 0.9727
1.2669 6.6246 -1.5571 0.9727
0.4599 6.7289 -1.5571 0.9727
-0.3867 7.3607 -1.7017 0.9702
-1.2703 7.2606 -1.7017 0.9702
-2.1354 7.0548 -1.7017 0.9702
-2.9694 6.7463 -1.7017 0.9702
-3.7603 6.3396 -1.7017 0.9702
-4.4963 5.8406 -1.7017 0.9702
-5.1670 5.2566 -1.7017 0.9702
-5.7624 4.5961 -1.7017 0.9702
-6.2740 3.8687 -1.7017 0.9702
-6.6942 3.0850 -1.7017 0.9702
-7.0170 2.2564 -1.7017 0.9702
-7.2377 1.3949 -1.7017 0.9702
-7.3530 0.5132 -1.7017 0.9702
-7.3613 -0.3761 -1.7017 0.9702
-7.2624 -1.2598 -1.7017 0.9702
-7.0578 -2.1252 -1.7017 0.9702
-6.7505 -2.9597 -1.7017 0.9702
-6.3450 -3.7511 -1.7017 0.9702
