ply
format ascii 1.0
element vertex 1526
property float32 x
property float32 y
property float32 z
property float32 I
end_header
15.3350 29.1331 -0.5747 0.8766
5.2045 13.6677 -0.2553 0.9432
15.8879 64.0505 -1.1518 0.7680
8.1093 65.8915 -1.1588 0.7667
0.1442 81.7230 -1.4265 0.7211
-0.8610 7.2051 -0.1267 0.9714
-15.6386 64.0122 -1.1502 0.7683
-24.1751 64.1680 -1.1969 0.7601
-18.8778 36.1731 -0.7122 0.8494
-18.5076 26.9551 -0.5707 0.8774
-13.1684 14.9425 -0.3476 0.9234
-18.7753 16.7259 -0.4389 0.9043
-18.7935 13.0526 -0.3994 0.9125
-18.8587 9.9708 -0.3724 0.9182
-19.9708 7.6465 -0.3733 0.9180
-30.6266 7.6564 -0.5510 0.8814
-93.9044 11.7311 -1.6518 0.6848
-93.8200 0.3370 -1.6376 0.6871
-93.7314 -11.0262 -1.6474 0.6855
-25.3641 -6.1476 -0.4555 0.9009
-61.8050 -23.1563 -1.1520 0.7679
-44.6721 -23.2096 -0.8787 0.8176
-33.6660 -23.0252 -0.7119 0.8494
-26.5405 -23.3036 -0.6165 0.8682
-22.2591 -24.8950 -0.5829 0.8749
-23.4429 -33.6228 -0.7155 0.8488
-22.0376 -41.4983 -0.8201 0.8286
-22.1194 -57.4569 -1.0747 0.7817
-10.7563 -42.6953 -0.7685 0.8385
-12.2617 -96.7171 -1.7017 0.6770
-0.2378 -43.9165 -0.7666 0.8389
11.2135 -96.8458 -1.7017 0.6770
18.1986 -75.6876 -1.3588 0.7324
16.5852 -44.5136 -0.8292 0.8269
10.5790 -20.4527 -0.4019 0.9120
17.5169 -25.7126 -0.5431 0.8830
21.1448 -24.1706 -0.5606 0.8794
27.7056 -24.8634 -0.6498 0.8616
53.5026 -37.4493 -1.1399 0.7701
22.8955 -12.2123 -0.4529 0.9014
62.0192 -24.0061 -1.1608 0.7664
86.0436 -21.8445 -1.5495 0.7011
96.6961 -12.4387 -1.7017 0.6770
97.4903 -0.7062 -1.7017 0.6770
36.0463 4.1069 -0.6333 0.8649
19.6930 4.6970 -0.3534 0.9222
16.8957 6.2600 -0.3145 0.9305
16.0089 8.2434 -0.3143 0.9305
15.3698 10.4297 -0.3242 0.9284
12.3168 10.7352 -0.2852 0.9367
15.2655 16.9483 -0.3981 0.9128
15.2249 21.6670 -0.4622 0.8995
15.3030 28.5644 -0.5656 0.8784
5.3204 13.6711 -0.2561 0.9430
20.0576 78.4052 -1.4126 0.7234
8.4238 64.5550 -1.1364 0.7707
0.7393 81.5278 -1.4231 0.7217
-0.8072 7.2010 -0.1265 0.9714
-22.4483 94.8850 -1.7019 0.6770
-23.8039 64.6080 -1.2018 0.7592
-18.8829 36.8360 -0.7225 0.8474
-18.4556 27.3043 -0.5753 0.8765
-18.7754 21.6210 -0.4998 0.8918
-18.7746 16.9727 -0.4418 0.9037
-18.7888 13.2537 -0.4013 0.9121
-18.8553 10.1458 -0.3737 0.9179
-19.5738 7.6587 -0.3669 0.9194
-29.6496 7.6426 -0.5344 0.8847
-93.9094 12.4285 -1.6535 0.6846
-93.8252 1.0219 -1.6378 0.6870
-93.7369 -10.3334 -1.6461 0.6857
-93.6420 -21.9736 -1.6789 0.6806
-62.6286 -22.9446 -1.1642 0.7658
-45.0576 -22.9935 -0.8830 0.8168
-34.1972 -23.0237 -0.7196 0.8480
-26.9403 -23.3084 -0.6218 0.8672
-21.9896 -24.2349 -0.5712 0.8773
-28.5883 -40.3708 -0.8635 0.8204
-22.0356 -40.7728 -0.8090 0.8308
-22.2861 -56.6522 -1.0626 0.7838
-11.0788 -42.6575 -0.7693 0.8384
-12.7144 -94.7376 -1.6685 0.6822
-0.3164 -24.8776 -0.4343 0.9053
10.5059 -96.9251 -1.7017 0.6770
18.1918 -78.1662 -1.4009 0.7254
16.6321 -45.6557 -0.8481 0.8233
10.4302 -20.5312 -0.4020 0.9120
17.2428 -25.7118 -0.5404 0.8835
21.1438 -24.5287 -0.5653 0.8785
27.8884 -25.3976 -0.6584 0.8599
26.0223 -18.4991 -0.5573 0.8801
22.4823 -12.2037 -0.4465 0.9027
61.9410 -24.4974 -1.1627 0.7661
71.4355 -18.6923 -1.2889 0.7442
96.6027 -13.1446 -1.7017 0.6770
97.4825 -1.4182 -1.7017 0.6770
39.4773 4.2060 -0.6930 0.8531
20.0701 4.6323 -0.3595 0.9209
16.9714 6.1475 -0.3151 0.9303
16.0877 8.1358 -0.3147 0.9304
15.5460 10.3842 -0.3263 0.9279
15.3548 13.1871 -0.3533 0.9222
15.4390 16.8911 -0.3994 0.9125
15.3363 21.4902 -0.4608 0.8998
15.3333 28.1254 -0.5591 0.8797
5.4367 13.6735 -0.2568 0.9428
20.7025 78.5327 -1.4176 0.7226
8.9019 64.5406 -1.1372 0.7706
1.3346 81.5143 -1.4230 0.7217
-0.7565 7.2254 -0.1268 0.9714
-21.7548 95.0464 -1.7019 0.6770
-27.2778 75.7374 -1.4051 0.7247
-18.8882 37.5188 -0.7332 0.8453
-15.7760 23.7113 -0.4971 0.8923
-18.7774 21.9450 -0.5041 0.8909
-18.7740 17.2229 -0.4447 0.9031
-18.7845 13.4571 -0.4033 0.9117
-18.8519 10.3222 -0.3752 0.9176
-19.1899 7.6706 -0.3607 0.9206
-28.7292 7.6295 -0.5189 0.8879
-93.9144 13.1278 -1.6552 0.6843
-93.8304 1.7074 -1.6381 0.6870
-93.7425 -9.6420 -1.6449 0.6859
-93.6480 -21.2550 -1.6762 0.6810
-91.7851 -32.8686 -1.7017 0.6770
-45.4962 -22.8004 -0.8883 0.8158
-34.7397 -23.0222 -0.7274 0.8464
-27.3493 -23.3154 -0.6273 0.8661
-21.9886 -23.8812 -0.5667 0.8782
-21.1824 -29.4543 -0.6333 0.8649
-22.1779 -40.3296 -0.8034 0.8318
-18.3003 23.2228 -1.5495 0.8883
-18.9425 18.8408 -1.4002 0.8985
-18.9489 14.7676 -1.2590 0.9083
-18.9582 11.3983 -1.1593 0.9152
-18.9663 8.4843 -1.0889 0.9201
-25.1104 7.7661 -1.3775 0.9001
-29.0931 5.2717 -1.5495 0.8883
-29.5982 1.7354 -1.5538 0.8880
-32.4084 -2.0160 -1.7017 0.8780
-31.9300 -5.9032 -1.7017 0.8780
-22.1918 -6.9500 -1.2187 0.9111
-29.5932 -13.3646 -1.7017 0.8780
-27.7688 -16.8304 -1.7017 0.8780
-23.2562 -18.2579 -1.5495 0.8883
-20.8888 -20.9251 -1.5495 0.8883
-18.2176 -23.2878 -1.5495 0.8883
-15.2812 -25.3118 -1.5495 0.8883
-12.7223 -28.3015 -1.6262 0.8831
-9.6508 -31.0037 -1.7017 0.8780
-5.8478 -31.9401 -1.7017 0.8780
-1.7933 -29.6581 -1.5572 0.8878
0.6486 -10.7436 -0.5641 0.9578
1.9703 -10.7674 -0.5737 0.9571
9.6479 -31.0046 -1.7017 0.8780
9.8933 -22.0136 -1.2648 0.9079
15.2789 -25.3132 -1.5495 0.8883
18.2154 -23.2895 -1.5495 0.8883
20.3551 -20.3941 -1.5101 0.8910
23.2545 -18.2600 -1.5495 0.8883
19.8958 -12.0611 -1.2193 0.9110
29.5919 -13.3674 -1.7017 0.8780
30.9861 -9.7074 -1.7017 0.8780
31.9294 -5.9061 -1.7017 0.8780
32.4082 -2.0189 -1.7017 0.8780
29.5164 1.7279 -1.5495 0.8883
21.8591 3.9588 -1.1642 0.9149
18.1871 5.6230 -0.9977 0.9266
16.5929 7.4207 -0.9526 0.9298
15.4927 9.3128 -0.9473 0.9302
15.4173 12.0130 -1.0243 0.9247
14.8999 14.8172 -1.1013 0.9193
14.9270 18.9385 -1.2638 0.9079
14.9639 24.5829 -1.5082 0.8911
5.5928 12.3210 -0.7091 0.9472
4.2863 13.5948 -0.7470 0.9445
5.9644 31.9186 -1.7017 0.8780
2.0781 32.4045 -1.7017 0.8780
-1.8385 32.4190 -1.7017 0.8780
-5.7283 31.9618 -1.7017 0.8780
-9.5347 31.0396 -1.7017 0.8780
-12.7198 28.5815 -1.6395 0.8822
-15.1864 25.3688 -1.5495 0.8883
-18.1303 23.3558 -1.5495 0.8883
-18.9418 19.1172 -1.4104 0.8978
-18.9482 14.9908 -1.2662 0.9078
-18.9577 11.5873 -1.1644 0.9148
-18.9658 8.6508 -1.0925 0.9199
-24.4702 7.7643 -1.3454 0.9023
-29.0539 5.4840 -1.5495 0.8883
-29.5028 1.9461 -1.5495 0.8883
-32.4223 -1.7793 -1.7017 0.8780
-31.9722 -5.6699 -1.7017 0.8780
-22.1953 -6.7736 -1.2162 0.9112
-29.6900 -13.1482 -1.7017 0.8780
-27.8910 -16.6272 -1.7017 0.8780
-23.3889 -18.0876 -1.5495 0.8883
-21.0411 -20.7720 -1.5495 0.8883
-18.3871 -23.1542 -1.5495 0.8883
-15.4657 -25.1995 -1.5495 0.8883
-12.7270 -27.7680 -1.6008 0.8848
-9.8769 -30.9324 -1.7017 0.8780
-6.0809 -31.8966 -1.7017 0.8780
-1.8011 -26.5654 -1.3954 0.8988
0.5699 -10.7433 -0.5638 0.9578
1.8861 -10.7500 -0.5720 0.9572
9.4213 -31.0743 -1.7017 0.8780
9.9232 -22.5184 -1.2896 0.9061
15.0937 -25.4241 -1.5495 0.8883
18.0449 -23.4219 -1.5495 0.8883
20.3550 -20.6940 -1.5212 0.8902
23.1206 -18.4293 -1.5495 0.8883
19.7862 -12.1931 -1.2180 0.9111
29.4935 -13.5831 -1.7017 0.8780
30.9144 -9.9333 -1.7017 0.8780
31.8854 -6.1391 -1.7017 0.8780
32.3926 -2.2555 -1.7017 0.8780
29.5282 1.5123 -1.5495 0.8883
22.7751 3.9532 -1.2114 0.9116
18.3739 5.5341 -1.0057 0.9260
16.4572 7.2163 -0.9418 0.9306
15.6790 9.2696 -0.9546 0.9296
15.2963 11.7402 -1.0105 0.9257
14.8985 14.6010 -1.0932 0.9198
14.9251 18.6544 -1.2520 0.9087
14.9613 24.1792 -1.4901 0.8924
5.7139 12.3475 -0.7130 0.9470
4.1472 12.8263 -0.7065 0.9474
6.1973 31.8742 -1.7017 0.8780
2.3146 32.3885 -1.7017 0.8780
-1.6017 32.4315 -1.7017 0.8780
-5.4947 32.0028 -1.7017 0.8780
-9.3078 31.1085 -1.7017 0.8780
-12.7149 29.1415 -1.6663 0.8804
-15.0008 25.4790 -1.5495 0.8883
-17.9592 23.4876 -1.5495 0.8883
-18.9410 19.3977 -1.4208 0.8971
-18.9476 15.2165 -1.2736 0.9072
-18.9572 11.7780 -1.1696 0.9145
-18.9654 8.8185 -1.0961 0.9196
-23.8592 7.7626 -1.3149 0.9044
-29.0131 5.6960 -1.5495 0.8883
-29.4878 2.1614 -1.5495 0.8883
-32.4344 -1.5425 -1.7017 0.8780
-32.0128 -5.4363 -1.7017 0.8780
-22.2121 -6.6018 -1.2144 0.9114
-29.7852 -12.9311 -1.7017 0.8780
-28.0116 -16.4231 -1.7017 0.8780
-23.5204 -17.9163 -1.5495 0.8883
-21.1922 -20.6178 -1.5495 0.8883
-18.5557 -23.0193 -1.5495 0.8883
-15.6493 -25.0859 -1.5495 0.8883
-12.7315 -27.2507 -1.5763 0.8865
-10.1025 -30.8595 -1.7017 0.8780
-6.3136 -31.8513 -1.7017 0.8780
-1.8737 -24.9372 -1.3106 0.9047
0.4913 -10.7438 -0.5636 0.9578
1.8055 -10.7510 -0.5713 0.9573
9.1941 -31.1422 -1.7017 0.8780
9.9347 -22.9981 -1.3129 0.9045
14.9076 -25.5336 -1.5495 0.8883
17.8734 -23.5530 -1.5495 0.8883
20.3549 -20.9984 -1.5327 0.8895
22.9854 -18.5977 -1.5495 0.8883
19.7047 -12.3424 -1.2185 0.9111
29.3936 -13.7981 -1.7017 0.8780
30.8410 -10.1588 -1.7017 0.8780
15.2698 -3.0558 -0.8161 0.9395
32.3753 -2.4920 -1.7017 0.8780
29.5385 1.2967 -1.5495 0.8883
23.7686 3.9470 -1.2627 0.9080
18.3731 5.3879 -1.0034 0.9262
16.6616 7.1614 -0.9504 0.9299
15.6977 9.1267 -0.9516 0.9299
15.4535 11.6826 -1.0153 0.9253
14.8971 14.3879 -1.0854 0.9204
14.9233 18.3754 -1.2406 0.9095
14.9587 23.7852 -1.4726 0.8936
5.8363 12.3742 -0.7170 0.9467
4.2242 12.7459 -0.7037 0.9476
6.4298 31.8281 -1.7017 0.8780
2.5510 32.3707 -1.7017 0.8780
-1.3649 32.4424 -1.7017 0.8780
-5.2609 32.0420 -1.7017 0.8780
-9.0804 31.1756 -1.7017 0.8780
-12.7098 29.7199 -1.6940 0.8786
-14.8143 25.5878 -1.5495 0.8883
-17.7873 23.6181 -1.5495 0.8883
-18.9402 19.6823 -1.4315 0.8964
-18.9470 15.4449 -1.2811 0.9067
-18.9566 11.9703 -1.1750 0.9141
-18.1705 8.6108 -1.0538 0.9226
-23.2752 7.7610 -1.2858 0.9064
-28.9707 5.9077 -1.5495 0.8883
-29.4712 2.3767 -1.5495 0.8883
-32.4448 -1.3056 -1.7017 0.8780
-32.0516 -5.2024 -1.7017 0.8780
-22.2288 -6.4305 -1.2127 0.9115
-29.8788 -12.7133 -1.7017 0.8780
-28.1308 -16.2182 -1.7017 0.8780
-23.6506 -17.7441 -1.5495 0.8883
-21.3422 -20.4625 -1.5495 0.8883
-18.7233 -22.8832 -1.5495 0.8883
-15.8320 -24.9710 -1.5495 0.8883
-12.7392 -26.7559 -1.5530 0.8881
-10.3276 -30.7849 -1.7017 0.8780
-6.5460 -31.8044 -1.7017 0.8780
-2.6692 -32.3612 -1.7017 0.8780
0.4127 -10.7443 -0.5635 0.9578
1.7251 -10.7520 -0.5707 0.9573
8.9665 -31.2085 -1.7017 0.8780
9.8965 -23.3771 -1.3304 0.9033
11.3826 -19.8270 -1.1981 0.9125
17.7009 -23.6829 -1.5495 0.8883
20.4235 -21.3793 -1.5495 0.8883
22.8490 -18.7650 -1.5495 0.8883
19.6420 -12.5037 -1.2203 0.9110
29.2920 -14.0123 -1.7017 0.8780
30.7660 -10.3838 -1.7017 0.8780
15.1330 -3.1435 -0.8100 0.9400
32.3562 -2.7283 -1.7017 0.8780
32.3118 1.1821 -1.6945 0.8785
24.8499 3.9404 -1.3186 0.9041
18.3607 5.2390 -1.0006 0.9264
16.6124 6.9970 -0.9447 0.9303
15.7971 9.0307 -0.9536 0.9297
15.3804 11.4518 -1.0049 0.9261
14.8957 14.1778 -1.0777 0.9209
14.9215 18.1015 -1.2294 0.9103
14.9562 23.4003 -1.4554 0.8947
12.8077 26.6489 -1.5495 0.8883
4.3197 12.7223 -0.7041 0.9476
6.6621 31.7803 -1.7017 0.8780
2.7874 32.3512 -1.7017 0.8780
-1.1279 32.4515 -1.7017 0.8780
-5.0268 32.0796 -1.7017 0.8780
-8.8525 31.2410 -1.7017 0.8780
-12.5173 29.8713 -1.6974 0.8783
-14.6271 25.6953 -1.5495 0.8883
-17.6143 23.7474 -1.5495 0.8883
-18.9394 19.9713 -1.4425 0.8956
-18.9463 15.6761 -1.2887 0.9062
-18.9561 12.1645 -1.1804 0.9137
-18.0961 8.7379 -1.0531 0.9227
-22.7165 7.7594 -1.2581 0.9083
-28.9268 6.1190 -1.5495 0.8883
-29.4531 2.5918 -1.5495 0.8883
-32.4535 -1.0686 -1.7017 0.8780
-31.9615 -4.9485 -1.6950 0.8785
-22.2924 -6.2728 -1.2137 0.9114
-29.9708 -12.4947 -1.7017 0.8780
-28.2485 -16.0123 -1.7017 0.8780
-23.7795 -17.5710 -1.5495 0.8883
-21.4910 -20.3061 -1.5495 0.8883
-18.8898 -22.7459 -1.5495 0.8883
-16.0139 -24.8547 -1.5495 0.8883
-12.9050 -26.6019 -1.5495 0.8883
-10.5521 -30.7087 -1.7017 0.8780
-6.7781 -31.7558 -1.7017 0.8780
-2.9054 -32.3408 -1.7017 0.8780
0.3343 -10.7484 -0.5636 0.9578
1.6443 -10.7497 -0.5699 0.9574
8.7384 -31.2731 -1.7017 0.8780
9.8965 -23.8609 -1.3538 0.9017
11.1593 -19.7710 -1.1898 0.9131
17.5275 -23.8115 -1.5495 0.8883
20.2669 -21.5281 -1.5495 0.8883
22.7114 -18.9314 -1.5495 0.8883
19.6234 -12.6941 -1.2248 0.9106
29.1889 -14.2259 -1.7017 0.8780
30.6894 -10.6081 -1.7017 0.8780
31.7433 -6.8360 -1.7017 0.8780
32.3354 -2.9645 -1.7017 0.8780
32.3950 0.9484 -1.6985 0.8783
26.0315 3.9331 -1.3797 0.8999
18.6649 5.1786 -1.0151 0.9253
16.6753 6.8806 -0.9454 0.9303
15.9067 8.9399 -0.9563 0.9295
15.2716 11.1984 -0.9925 0.9270
14.8944 13.9706 -1.0702 0.9215
14.9197 17.8324 -1.2185 0.9111
14.9537 23.0241 -1.4388 0.8959
13.0020 26.5547 -1.5495 0.8883
4.3596 12.5383 -0.6957 0.9482
6.8940 31.7308 -1.7017 0.8780
3.0235 32.3300 -1.7017 0.8780
-0.8909 32.4588 -1.7017 0.8780
-4.7924 32.1155 -1.7017 0.8780
-8.6242 31.3048 -1.7017 0.8780
-12.3228 30.0201 -1.7007 0.8781
-14.4391 25.8014 -1.5495 0.8883
-17.4405 23.8753 -1.5495 0.8883
-18.9386 20.2647 -1.4536 0.8948
-18.9457 15.9100 -1.2966 0.9057
-13.9344 9.0863 -0.8718 0.9355
-18.0785 8.8927 -1.0559 0.9225
-22.1810 7.7579 -1.2315 0.9102
-28.8813 6.3302 -1.5495 0.8883
-29.4334 2.8069 -1.5495 0.8883
-32.4604 -0.8316 -1.7017 0.8780
-32.1242 -4.7337 -1.7017 0.8780
-22.3769 -6.1206 -1.2158 0.9113
-30.0613 -12.2755 -1.7017 0.8780
-28.3647 -15.8055 -1.7017 0.8780
-23.9262 -17.4106 -1.5508 0.8882
-21.6387 -20.1487 -1.5495 0.8883
-19.0555 -22.6073 -1.5495 0.8883
-16.1950 -24.7371 -1.5495 0.8883
-13.0989 -26.5070 -1.5495 0.8883
-10.7761 -30.6308 -1.7017 0.8780
-7.0098 -31.7054 -1.7017 0.8780
-3.1416 -32.3187 -1.7017 0.8780
0.2559 -10.7534 -0.5637 0.9578
1.5625 -10.7390 -0.5687 0.9575
8.5098 -31.3361 -1.7017 0.8780
11.7015 -28.8056 -1.6294 0.8829
10.9630 -19.7589 -1.1842 0.9135
17.3532 -23.9389 -1.5495 0.8883
20.1091 -21.6754 -1.5495 0.8883
22.5725 -19.0967 -1.5495 0.8883
19.6046 -12.8860 -1.2295 0.9103
29.0843 -14.4386 -1.7017 0.8780
30.6111 -10.8319 -1.7017 0.8780
31.6926 -7.0676 -1.7017 0.8780
32.3129 -3.2005 -1.7017 0.8780
32.4632 0.7132 -1.7017 0.8780
27.3279 3.9252 -1.4469 0.8953
18.7369 5.0516 -1.0170 0.9252
16.5637 6.6934 -0.9363 0.9309
15.7135 8.6810 -0.9408 0.9306
15.2318 10.9992 -0.9846 0.9275
14.8931 13.7664 -1.0629 0.9220
14.9180 17.5682 -1.2079 0.9118
14.9513 22.6566 -1.4226 0.8970
13.1955 26.4590 -1.5495 0.8883
4.4289 12.4438 -0.6922 0.9485
7.1255 31.6796 -1.7017 0.8780
3.2595 32.3070 -1.7017 0.8780
-0.6539 32.4645 -1.7017 0.8780
-4.5577 32.1496 -1.7017 0.8780
-8.3953 31.3670 -1.7017 0.8780
-12.1107 30.1281 -1.7017 0.8780
-14.2503 25.9062 -1.5495 0.8883
-17.2657 24.0021 -1.5495 0.8883
-18.9377 20.5629 -1.4650 0.8941
-18.9450 16.1468 -1.3046 0.9051
-13.8003 9.1432 -0.8676 0.9358
-18.1327 9.0845 -1.0629 0.9220
-21.6681 7.7565 -1.2061 0.9119
-28.8343 6.5408 -1.5495 0.8883
-23.8532 2.4506 -1.2567 0.9084
-32.4656 -0.5946 -1.7017 0.8780
-32.1579 -4.4991 -1.7017 0.8780
-22.5150 -5.9821 -1.2209 0.9109
-30.1501 -12.0558 -1.7017 0.8780
-28.4793 -15.5981 -1.7017 0.8780
-24.2831 -17.4007 -1.5656 0.8872
-21.7852 -19.9902 -1.5495 0.8883
-19.2200 -22.4676 -1.5495 0.8883
-16.3751 -24.6182 -1.5495 0.8883
-13.2920 -26.4107 -1.5495 0.8883
-10.9993 -30.5513 -1.7017 0.8780
-7.2410 -31.6534 -1.7017 0.8780
-3.3774 -32.2949 -1.7017 0.8780
0.1774 -10.7584 -0.5639 0.9578
1.4823 -10.7376 -0.5681 0.9575
8.2808 -31.3974 -1.7017 0.8780
11.6961 -29.4061 -1.6585 0.8809
10.7733 -19.7558 -1.1793 0.9138
17.1779 -24.0649 -1.5495 0.8883
19.9503 -21.8217 -1.5495 0.8883
22.4325 -19.2610 -1.5495 0.8883
19.6138 -13.0981 -1.2360 0.9099
23.7155 -11.9900 -1.3927 0.8990
30.5312 -11.0552 -1.7017 0.8780
31.6401 -7.2989 -1.7017 0.8780
32.2887 -3.4364 -1.7017 0.8780
32.4676 0.4761 -1.7017 0.8780
28.7576 3.9163 -1.5210 0.8903
18.9641 4.9646 -1.0274 0.9245
16.7575 6.6298 -0.9445 0.9304
15.9880 8.6808 -0.9534 0.9297
15.3315 10.9016 -0.9859 0.9274
14.8917 13.5649 -1.0557 0.9225
14.9163 17.3083 -1.1975 0.9125
14.9490 22.2971 -1.4069 0.8981
13.3884 26.3620 -1.5495 0.8883
4.5213 12.4157 -0.6925 0.9485
7.3566 31.6267 -1.7017 0.8780
3.4953 32.2824 -1.7017 0.8780
-0.4169 32.4684 -1.7017 0.8780
-4.3229 32.1820 -1.7017 0.8780
-8.1661 31.4274 -1.7017 0.8780
-11.8905 30.2156 -1.7017 0.8780
-14.0608 26.0095 -1.5495 0.8883
-17.0900 24.1275 -1.5495 0.8883
-18.9369 20.8656 -1.4767 0.8933
-18.9443 16.3865 -1.3127 0.9045
-13.7956 9.2856 -0.8715 0.9356
-18.9630 9.6743 -1.1157 0.9183
-21.1756 7.7551 -1.1818 0.9136
-28.7858 6.7512 -1.5495 0.8883
-23.5850 2.5972 -1.2435 0.9093
-32.4691 -0.3575 -1.7017 0.8780
-32.1899 -4.2641 -1.7017 0.8780
-22.9725 -5.9244 -1.2433 0.9093
-30.2373 -11.8352 -1.7017 0.8780
-28.5924 -15.3897 -1.7017 0.8780
-24.6544 -17.3957 -1.5813 0.8862
-21.9306 -19.8305 -1.5495 0.8883
-19.3836 -22.3267 -1.5495 0.8883
-16.5545 -24.4980 -1.5495 0.8883
-13.4846 -26.3129 -1.5495 0.8883
-11.2222 -30.4702 -1.7017 0.8780
-7.4720 -31.5997 -1.7017 0.8780
-3.6131 -32.2694 -1.7017 0.8780
0.0989 -10.7634 -0.5641 0.9578
1.4027 -10.7394 -0.5676 0.9575
8.0513 -31.4571 -1.7017 0.8780
11.6905 -30.0288 -1.6888 0.8789
10.5906 -19.7626 -1.1751 0.9141
17.0018 -24.1897 -1.5495 0.8883
19.7905 -21.9667 -1.5495 0.8883
22.2913 -19.4243 -1.5495 0.8883
19.6354 -13.3208 -1.2435 0.9093
23.2917 -11.9900 -1.3729 0.9004
30.4497 -11.2777 -1.7017 0.8780
31.5860 -7.5296 -1.7017 0.8780
32.2628 -3.6720 -1.7017 0.8780
32.4702 0.2391 -1.7017 0.8780
29.3248 3.7758 -1.5495 0.8883
19.1960 4.8758 -1.0380 0.9237
16.8030 6.5062 -0.9443 0.9304
15.7884 8.4237 -0.9378 0.9308
15.3729 10.7629 -0.9835 0.9276
14.8904 13.3660 -1.0486 0.9230
14.9146 17.0529 -1.1873 0.9133
14.9467 21.9455 -1.3915 0.8991
13.5806 26.2635 -1.5495 0.8883
4.6140 12.3881 -0.6928 0.9484
7.5874 31.5722 -1.7017 0.8780
3.7310 32.2560 -1.7017 0.8780
-0.1797 32.4706 -1.7017 0.8780
-0.9193 7.2446 -0.3827 0.9712
-7.9364 31.4862 -1.7017 0.8780
-11.6695 30.3017 -1.7017 0.8780
-13.8705 26.1115 -1.5495 0.8883
-16.9133 24.2516 -1.5495 0.8883
-13.2429 14.8075 -1.0411 0.9235
-18.9437 16.6293 -1.3210 0.9040
-18.9539 12.9598 -1.2033 0.9121
-18.9625 9.8492 -1.1198 0.9180
-20.7028 7.7538 -1.1586 0.9153
-28.7358 6.9612 -1.5495 0.8883
-23.5772 2.7707 -1.2441 0.9093
-32.4708 -0.1205 -1.7017 0.8780
-32.2201 -4.0290 -1.7017 0.8780
-23.8310 -5.9606 -1.2874 0.9063
-30.3229 -11.6142 -1.7017 0.8780
-28.7040 -15.1805 -1.7017 0.8780
-25.0331 -17.3906 -1.5974 0.8851
-22.0748 -19.6699 -1.5495 0.8883
-19.5460 -22.1846 -1.5495 0.8883
-16.7330 -24.3764 -1.5495 0.8883
-13.6764 -26.2137 -1.5495 0.8883
-11.4444 -30.3874 -1.7017 0.8780
-7.7026 -31.5442 -1.7017 0.8780
-3.8487 -32.2422 -1.7017 0.8780
0.0203 -10.7678 -0.5643 0.9578
1.3230 -10.7397 -0.5671 0.9576
2.7716 -11.1677 -0.6030 0.9550
11.5259 -30.2577 -1.6969 0.8784
10.4202 -19.7904 -1.1722 0.9143
16.8246 -24.3132 -1.5495 0.8883
19.6295 -22.1107 -1.5495 0.8883
22.1488 -19.5865 -1.5495 0.8883
19.7257 -13.5935 -1.2555 0.9085
22.9162 -12.0092 -1.3559 0.9016
30.3665 -11.4998 -1.7017 0.8780
31.5302 -7.7601 -1.7017 0.8780
32.2351 -3.9075 -1.7017 0.8780
32.4711 0.0019 -1.7017 0.8780
29.3516 3.5615 -1.5495 0.8883
19.4327 4.7852 -1.0488 0.9230
16.8953 6.4005 -0.9469 0.9302
16.0394 8.4078 -0.9491 0.9300
15.3463 10.5783 -0.9768 0.9281
12.2288 10.8167 -0.8556 0.9367
14.9129 16.8020 -1.1774 0.9139
14.9444 21.6015 -1.3766 0.9001
13.7719 26.1637 -1.5495 0.8883
4.7067 12.3604 -0.6932 0.9484
7.8176 31.5160 -1.7017 0.8780
3.9663 32.2279 -1.7017 0.8780
0.0573 32.4710 -1.7017 0.8780
-0.8609 7.2050 -0.3803 0.9714
-7.7062 31.5434 -1.7017 0.8780
-11.4479 30.3861 -1.7017 0.8780
-13.6794 26.2121 -1.5495 0.8883
-16.7358 24.3745 -1.5495 0.8883
-13.0829 14.8454 -1.0370 0.9238
-18.9430 16.8752 -1.3296 0.9034
-18.9533 13.1636 -1.2094 0.9117
-18.9620 10.0254 -1.1241 0.9177
-20.2479 7.7526 -1.1363 0.9168
-28.6842 7.1708 -1.5495 0.8883
-29.3389 3.6652 -1.5495 0.8883
-32.4709 0.1166 -1.7017 0.8780
-32.2487 -3.7936 -1.7017 0.8780
-24.5125 -5.9412 -1.3218 0.9039
-30.4069 -11.3925 -1.7017 0.8780
-28.8141 -14.9705 -1.7017 0.8780
-25.4198 -17.3854 -1.6140 0.8840
-22.2179 -19.5082 -1.5495 0.8883
-19.7075 -22.0412 -1.5495 0.8883
-16.9105 -24.2536 -1.5495 0.8883
-13.8674 -26.1132 -1.5495 0.8883
-11.6659 -30.3031 -1.7017 0.8780
-7.9326 -31.4872 -1.7017 0.8780
-4.0840 -32.2132 -1.7017 0.8780
-0.0583 -10.7688 -0.5644 0.9578
1.2431 -10.7361 -0.5664 0.9576
2.6529 -11.0334 -0.5947 0.9556
11.3271 -30.4012 -1.7003 0.8781
10.2586 -19.8333 -1.1702 0.9144
16.6468 -24.4354 -1.5495 0.8883
19.4676 -22.2534 -1.5495 0.8883
22.0052 -19.7478 -1.5495 0.8883
25.2424 -17.6685 -1.6148 0.8839
22.4946 -11.9985 -1.3361 0.9029
30.2817 -11.7213 -1.7017 0.8780
31.4726 -7.9902 -1.7017 0.8780
32.2057 -4.1428 -1.7017 0.8780
32.4702 -0.2352 -1.7017 0.8780
29.3768 3.3471 -1.5495 0.8883
19.5757 4.6690 -1.0547 0.9226
17.1014 6.3362 -0.9558 0.9296
16.1387 8.3102 -0.9513 0.9299
15.3557 10.4201 -0.9726 0.9284
12.2518 10.6786 -0.8517 0.9370
14.9113 16.5550 -1.1677 0.9146
14.9422 21.2647 -1.3621 0.9011
13.9626 26.0624 -1.5495 0.8883
4.8016 12.3379 -0.6938 0.9484
8.0476 31.4580 -1.7017 0.8780
4.2016 32.1981 -1.7017 0.8780
0.2944 32.4697 -1.7017 0.8780
-0.8072 7.2010 -0.3798 0.9714
-7.4758 31.5988 -1.7017 0.8780
-11.2258 30.4689 -1.7017 0.8780
-13.4877 26.3113 -1.5495 0.8883
-16.5574 24.4960 -1.5495 0.8883
-18.9343 21.8039 -1.5134 0.8908
-18.9423 17.1242 -1.3382 0.9028
-18.9527 13.3693 -1.2155 0.9113
-18.9615 10.2030 -1.1285 0.9174
-19.8105 7.7514 -1.1149 0.9183
-28.6311 7.3800 -1.5495 0.8883
-29.3113 3.8792 -1.5495 0.8883
-32.4691 0.3536 -1.7017 0.8780
-32.2755 -3.5580 -1.7017 0.8780
-25.3177 -5.9409 -1.3629 0.9011
-30.4893 -11.1701 -1.7017 0.8780
-28.9227 -14.7597 -1.7017 0.8780
-25.8146 -17.3800 -1.6309 0.8828
-22.3597 -19.3454 -1.5495 0.8883
-19.8680 -21.8967 -1.5495 0.8883
-17.0872 -24.1295 -1.5495 0.8883
-14.0577 -26.0112 -1.5495 0.8883
-11.8869 -30.2171 -1.7017 0.8780
-8.1624 -31.4284 -1.7017 0.8780
-4.3191 -32.1825 -1.7017 0.8780
-0.1370 -10.7703 -0.5645 0.9578
1.1634 -10.7336 -0.5658 0.9577
2.5386 -10.9077 -0.5869 0.9561
11.1145 -30.5096 -1.7017 0.8780
10.1144 -19.9096 -1.1703 0.9144
16.4679 -24.5563 -1.5495 0.8883
19.3046 -22.3950 -1.5495 0.8883
21.8603 -19.9080 -1.5495 0.8883
24.8553 -17.6694 -1.5982 0.8850
22.0970 -11.9945 -1.3177 0.9042
30.1953 -11.9421 -1.7017 0.8780
31.4134 -8.2198 -1.7017 0.8780
32.1746 -4.3779 -1.7017 0.8780
32.4676 -0.4724 -1.7017 0.8780
29.4005 3.1324 -1.5495 0.8883
19.9216 4.5980 -1.0715 0.9214
17.0695 6.1830 -0.9515 0.9299
16.1398 8.1622 -0.9479 0.9301
15.4167 10.2979 -0.9716 0.9284
14.8866 12.7850 -1.0284 0.9244
14.9097 16.3121 -1.1582 0.9153
14.9400 20.9350 -1.3479 0.9021
14.1526 25.9597 -1.5495 0.8883
4.8963 12.3145 -0.6945 0.9483
8.2771 31.3984 -1.7017 0.8780
4.4366 32.1665 -1.7017 0.8780
0.5316 32.4667 -1.7017 0.8780
-0.7565 7.2253 -0.3807 0.9713
-7.2448 31.6525 -1.7017 0.8780
-11.0030 30.5500 -1.7017 0.8780
-13.2952 26.4091 -1.5495 0.8883
-15.7760 23.7113 -1.4926 0.8922
-18.9334 22.1272 -1.5262 0.8899
-18.9416 17.3767 -1.3471 0.9022
-18.9522 13.5773 -1.2218 0.9108
-18.9610 10.3820 -1.1329 0.9171
-19.3890 7.7502 -1.0943 0.9198
-28.5764 7.5889 -1.5495 0.8883
-29.2822 4.0932 -1.5495 0.8883
-32.4657 0.5908 -1.7017 0.8780
-32.3006 -3.3223 -1.7017 0.8780
-26.1025 -5.9244 -1.4028 0.8983
-30.5700 -10.9472 -1.7017 0.8780
-29.0297 -14.5482 -1.7017 0.8780
-26.2175 -17.3745 -1.6483 0.8816
-22.5004 -19.1817 -1.5495 0.8883
-20.0273 -21.7511 -1.5495 0.8883
-17.2628 -24.0041 -1.5495 0.8883
-14.2472 -25.9079 -1.5495 0.8883
-12.0391 15.2774 -1.7017 0.9249
-12.7325 12.6641 -1.5711 0.9304
-13.9698 10.8873 -1.5495 0.9314
-15.1790 9.1261 -1.5495 0.9314
-16.1674 7.2322 -1.5495 0.9314
-16.9205 5.2331 -1.5495 0.9314
-17.4275 3.1579 -1.5495 0.9314
-19.4176 1.1385 -1.7017 0.9249
-19.4134 -1.2076 -1.7017 0.9249
-19.1268 -3.5361 -1.7017 0.9249
-18.5619 -5.8132 -1.7017 0.9249
-17.7270 -8.0057 -1.7017 0.9249
-16.6342 -10.0818 -1.7017 0.9249
-15.2993 -12.0112 -1.7017 0.9249
-13.7419 -13.7658 -1.7017 0.9249
-11.9846 -15.3202 -1.7017 0.9249
-10.0529 -16.6516 -1.7017 0.9249
-7.9750 -17.7408 -1.7017 0.9249
-5.7811 -18.5720 -1.7017 0.9249
-3.5030 -19.1329 -1.7017 0.9249
-0.6422 -10.6217 -0.9310 0.9582
0.6410 -10.6172 -0.9306 0.9582
1.9351 -10.5746 -0.9405 0.9578
5.7793 -18.5725 -1.7017 0.9249
7.9734 -17.7416 -1.7017 0.9249
10.0514 -16.6525 -1.7017 0.9249
11.9832 -15.3213 -1.7017 0.9249
13.7407 -13.7670 -1.7017 0.9249
15.2982 -12.0126 -1.7017 0.9249
16.6332 -10.0833 -1.7017 0.9249
17.7263 -8.0074 -1.7017 0.9249
18.5614 -5.8149 -1.7017 0.9249
19.1265 -3.5379 -1.7017 0.9249
19.4133 -1.2094 -1.7017 0.9249
19.3646 1.1336 -1.6971 0.9251
17.4277 3.1562 -1.5495 0.9314
16.9210 5.2316 -1.5495 0.9314
16.1680 7.2307 -1.5495 0.9314
15.1799 9.1247 -1.5495 0.9314
13.9709 10.8860 -1.5495 0.9314
12.5586 12.4888 -1.5495 0.9314
11.6971 14.8406 -1.6532 0.9269
10.1137 16.6148 -1.7017 0.9249
5.0671 11.1629 -1.0725 0.9520
4.2143 13.3665 -1.2262 0.9453
3.5728 19.1200 -1.7017 0.9249
1.1391 17.7619 -1.5572 0.9310
-1.0077 17.7698 -1.5572 0.9310
-3.4314 19.1459 -1.7017 0.9249
-5.7115 18.5935 -1.7017 0.9249
-7.9086 17.7706 -1.7017 0.9249
-9.9906 16.6891 -1.7017 0.9249
-11.9272 15.3649 -1.7017 0.9249
-12.7304 12.8483 -1.5824 0.9299
-13.8900 10.9890 -1.5495 0.9314
-15.1120 9.2367 -1.5495 0.9314
-16.1141 7.3501 -1.5495 0.9314
-16.8818 5.3565 -1.5495 0.9314
-17.4039 3.2850 -1.5495 0.9314
-19.4087 1.2803 -1.7017 0.9249
-19.4217 -1.0658 -1.7017 0.9249
-19.1521 -3.3964 -1.7017 0.9249
-18.6039 -5.6775 -1.7017 0.9249
-17.7850 -7.8761 -1.7017 0.9249
-16.7073 -9.9601 -1.7017 0.9249
-15.3866 -11.8991 -1.7017 0.9249
-13.8421 -13.6651 -1.7017 0.9249
-12.0962 -15.2322 -1.7017 0.9249
-10.1743 -16.5778 -1.7017 0.9249
-8.1043 -17.6821 -1.7017 0.9249
-5.9165 -18.5292 -1.7017 0.9249
-3.6426 -19.1068 -1.7017 0.9249
-0.7197 -10.6157 -0.9309 0.9582
0.5633 -10.6199 -0.9304 0.9582
1.8564 -10.5804 -0.9398 0.9578
5.6436 -18.6142 -1.7017 0.9249
7.8436 -17.7993 -1.7017 0.9249
9.9295 -16.7255 -1.7017 0.9249
11.8710 -15.4083 -1.7017 0.9249
13.6398 -13.8670 -1.7017 0.9249
15.2101 -12.1239 -1.7017 0.9249
16.5592 -10.2045 -1.7017 0.9249
17.6673 -8.1366 -1.7017 0.9249
18.5184 -5.9503 -1.7017 0.9249
19.1001 -3.6774 -1.7017 0.9249
19.4039 -1.3511 -1.7017 0.9249
19.3987 0.9935 -1.6994 0.9250
17.4503 3.0289 -1.5495 0.9314
16.9587 5.1079 -1.5495 0.9314
16.2204 7.1125 -1.5495 0.9314
15.2461 9.0136 -1.5495 0.9314
14.0500 10.7837 -1.5495 0.9314
12.6494 12.3968 -1.5495 0.9314
11.6998 14.6232 -1.6385 0.9276
10.2347 16.5405 -1.7017 0.9249
5.1582 11.1466 -1.0746 0.9519
4.2270 13.0733 -1.2021 0.9463
3.7123 19.0934 -1.7017 0.9249
1.3865 19.4014 -1.7017 0.9249
-0.8779 17.7767 -1.5572 0.9310
-3.2915 19.1704 -1.7017 0.9249
-5.5756 18.6347 -1.7017 0.9249
-7.7786 17.8279 -1.7017 0.9249
-9.8684 16.7616 -1.7017 0.9249
-11.8147 15.4516 -1.7017 0.9249
-12.7283 13.0352 -1.5939 0.9295
-13.8094 11.0901 -1.5495 0.9314
-15.0441 9.3468 -1.5495 0.9314
-16.0600 7.4675 -1.5495 0.9314
-16.8423 5.4796 -1.5495 0.9314
-17.3795 3.4120 -1.5495 0.9314
-19.3989 1.4219 -1.7017 0.9249
-19.4290 -0.9240 -1.7017 0.9249
-19.1764 -3.2565 -1.7017 0.9249
-18.6448 -5.5416 -1.7017 0.9249
-17.8420 -7.7460 -1.7017 0.9249
-16.7796 -9.8378 -1.7017 0.9249
-15.4731 -11.7865 -1.7017 0.9249
-13.9415 -13.5636 -1.7017 0.9249
-12.2071 -15.1435 -1.7017 0.9249
-10.2950 -16.5030 -1.7017 0.9249
-8.2332 -17.6225 -1.7017 0.9249
-6.0516 -18.4856 -1.7017 0.9249
-3.7820 -19.0797 -1.7017 0.9249
-0.7966 -10.6027 -0.9302 0.9582
0.4857 -10.6209 -0.9302 0.9582
1.7781 -10.5877 -0.9393 0.9578
5.5075 -18.6549 -1.7017 0.9249
7.7134 -17.8561 -1.7017 0.9249
9.8072 -16.7975 -1.7017 0.9249
11.7582 -15.4946 -1.7017 0.9249
13.5382 -13.9662 -1.7017 0.9249
15.1212 -12.2347 -1.7017 0.9249
16.4842 -10.3252 -1.7017 0.9249
17.6074 -8.2654 -1.7017 0.9249
18.4745 -6.0854 -1.7017 0.9249
19.0728 -3.8168 -1.7017 0.9249
19.3935 -1.4928 -1.7017 0.9249
19.4320 0.8530 -1.7017 0.9249
17.4720 2.9014 -1.5495 0.9314
16.9956 4.9839 -1.5495 0.9314
16.2719 6.9939 -1.5495 0.9314
15.3115 8.9021 -1.5495 0.9314
14.1283 10.6808 -1.5495 0.9314
12.7396 12.3041 -1.5495 0.9314
11.7025 14.4096 -1.6240 0.9282
10.3552 16.4653 -1.7017 0.9249
5.2634 11.1594 -1.0795 0.9517
4.2313 12.7672 -1.1767 0.9474
3.8516 19.0658 -1.7017 0.9249
1.5281 19.3908 -1.7017 0.9249
-0.7481 17.7826 -1.5572 0.9310
-3.1514 19.1939 -1.7017 0.9249
-5.4394 18.6749 -1.7017 0.9249
-7.6482 17.8842 -1.7017 0.9249
-9.7458 16.8332 -1.7017 0.9249
-11.7016 15.5374 -1.7017 0.9249
-12.7261 13.2248 -1.6057 0.9290
-13.7280 11.1906 -1.5495 0.9314
-14.9755 9.4564 -1.5495 0.9314
-16.0051 7.5846 -1.5495 0.9314
-16.8018 5.6025 -1.5495 0.9314
-17.3541 3.5388 -1.5495 0.9314
-19.3826 1.5631 -1.7013 0.9249
-19.4352 -0.7821 -1.7017 0.9249
-19.1996 -3.1164 -1.7017 0.9249
-18.6848 -5.4053 -1.7017 0.9249
-17.8981 -7.6156 -1.7017 0.9249
-16.8510 -9.7150 -1.7017 0.9249
-15.5588 -11.6732 -1.7017 0.9249
-14.0402 -13.4615 -1.7017 0.9249
-12.3173 -15.0540 -1.7017 0.9249
-10.4153 -16.4274 -1.7017 0.9249
-8.3617 -17.5619 -1.7017 0.9249
-6.1864 -18.4409 -1.7017 0.9249
-3.9212 -19.0516 -1.7017 0.9249
-0.8735 -10.5898 -0.9296 0.9582
0.4080 -10.6205 -0.9299 0.9582
1.6999 -10.5950 -0.9388 0.9578
5.3712 -18.6946 -1.7017 0.9249
7.5829 -17.9120 -1.7017 0.9249
9.6843 -16.8687 -1.7017 0.9249
11.6448 -15.5800 -1.7017 0.9249
13.4359 -14.0647 -1.7017 0.9249
15.0314 -12.3448 -1.7017 0.9249
16.4084 -10.4452 -1.7017 0.9249
17.5466 -8.3937 -1.7017 0.9249
18.4295 -6.2201 -1.7017 0.9249
15.2136 -3.1602 -1.3594 0.9395
19.3821 -1.6343 -1.7017 0.9249
19.4379 0.7111 -1.7017 0.9249
17.4927 2.7738 -1.5495 0.9314
17.0315 4.8597 -1.5495 0.9314
16.3225 6.8749 -1.5495 0.9314
15.3761 8.7901 -1.5495 0.9314
14.2059 10.5774 -1.5495 0.9314
12.8291 12.2108 -1.5495 0.9314
11.7051 14.1997 -1.6100 0.9288
10.4752 16.3893 -1.7017 0.9249
5.3708 11.1750 -1.0847 0.9514
4.2313 12.4617 -1.1514 0.9485
3.9908 19.0371 -1.7017 0.9249
1.6697 19.3791 -1.7017 0.9249
-0.6182 17.7876 -1.5572 0.9310
-3.0112 19.2164 -1.7017 0.9249
-5.3029 18.7141 -1.7017 0.9249
-7.5174 17.9395 -1.7017 0.9249
-9.6226 16.9040 -1.7017 0.9249
-11.5878 15.6225 -1.7017 0.9249
-12.7239 13.4171 -1.6178 0.9284
-13.6460 11.2906 -1.5495 0.9314
-13.9670 8.9629 -1.4519 0.9355
-15.9493 7.7013 -1.5495 0.9314
-16.7605 5.7250 -1.5495 0.9314
-17.3278 3.6654 -1.5495 0.9314
-19.3468 1.7025 -1.6992 0.9250
-19.4404 -0.6401 -1.7017 0.9249
-19.2219 -2.9761 -1.7017 0.9249
-18.7238 -5.2687 -1.7017 0.9249
-17.9532 -7.4846 -1.7017 0.9249
-16.9215 -9.5917 -1.7017 0.9249
-15.6436 -11.5592 -1.7017 0.9249
-14.1381 -13.3586 -1.7017 0.9249
-12.4269 -14.9636 -1.7017 0.9249
-10.5349 -16.3509 -1.7017 0.9249
-8.4897 -17.5004 -1.7017 0.9249
-6.3209 -18.3952 -1.7017 0.9249
-4.0602 -19.0224 -1.7017 0.9249
-0.9502 -10.5768 -0.9291 0.9583
0.3303 -10.6212 -0.9297 0.9582
1.6215 -10.6009 -0.9382 0.9579
5.2345 -18.7333 -1.7017 0.9249
7.4519 -17.9669 -1.7017 0.9249
9.5608 -16.9390 -1.7017 0.9249
11.5307 -15.6647 -1.7017 0.9249
13.3328 -14.1625 -1.7017 0.9249
14.9409 -12.4542 -1.7017 0.9249
16.3317 -10.5648 -1.7017 0.9249
17.4849 -8.5216 -1.7017 0.9249
18.3836 -6.3545 -1.7017 0.9249
19.0150 -4.0949 -1.7017 0.9249
19.3697 -1.7758 -1.7017 0.9249
19.4426 0.5692 -1.7017 0.9249
17.5125 2.6460 -1.5495 0.9314
17.0665 4.7352 -1.5495 0.9314
16.3723 6.7555 -1.5495 0.9314
15.4398 8.6776 -1.5495 0.9314
14.2828 10.4734 -1.5495 0.9314
12.9179 12.1168 -1.5495 0.9314
11.7076 13.9932 -1.5962 0.9294
10.5946 16.3124 -1.7017 0.9249
5.4793 11.1907 -1.0901 0.9512
4.2022 12.0856 -1.1194 0.9499
4.1297 19.0075 -1.7017 0.9249
1.8112 19.3664 -1.7017 0.9249
-0.4883 17.7917 -1.5572 0.9310
-2.8708 19.2379 -1.7017 0.9249
-5.1661 18.7523 -1.7017 0.9249
-7.3862 17.9939 -1.7017 0.9249
-9.4989 16.9738 -1.7017 0.9249
-11.4734 15.7066 -1.7017 0.9249
-12.7216 13.6124 -1.6301 0.9279
-13.5632 11.3899 -1.5495 0.9314
-13.7443 8.9623 -1.4355 0.9362
-15.8926 7.8175 -1.5495 0.9314
-16.7182 5.8473 -1.5495 0.9314
-17.3006 3.7919 -1.5495 0.9314
-19.3102 1.8415 -1.6971 0.9251
-19.4445 -0.4981 -1.7017 0.9249
-19.2431 -2.8356 -1.7017 0.9249
-18.7617 -5.1318 -1.7017 0.9249
-18.0074 -7.3533 -1.7017 0.9249
-16.9911 -9.4679 -1.7017 0.9249
-15.7276 -11.4447 -1.7017 0.9249
-14.2353 -13.2550 -1.7017 0.9249
-12.5359 -14.8725 -1.7017 0.9249
-10.6541 -16.2736 -1.7017 0.9249
-8.6173 -17.4379 -1.7017 0.9249
-6.4551 -18.3486 -1.7017 0.9249
-4.1990 -18.9923 -1.7017 0.9249
-1.0287 -10.5831 -0.9303 0.9582
0.2527 -10.6220 -0.9296 0.9582
1.5430 -10.6051 -0.9376 0.9579
5.0976 -18.7711 -1.7017 0.9249
7.3205 -18.0208 -1.7017 0.9249
9.4369 -17.0084 -1.7017 0.9249
11.4160 -15.7484 -1.7017 0.9249
13.2290 -14.2594 -1.7017 0.9249
14.8496 -12.5630 -1.7017 0.9249
16.2541 -10.6837 -1.7017 0.9249
17.4222 -8.6490 -1.7017 0.9249
18.3368 -6.4885 -1.7017 0.9249
18.9846 -4.2337 -1.7017 0.9249
19.3562 -1.9172 -1.7017 0.9249
19.4462 0.4272 -1.7017 0.9249
17.5313 2.5181 -1.5495 0.9314
17.1007 4.6105 -1.5495 0.9314
16.4212 6.6358 -1.5495 0.9314
15.5028 8.5646 -1.5495 0.9314
14.3589 10.3688 -1.5495 0.9314
13.0060 12.0221 -1.5495 0.9314
11.7101 13.7904 -1.5828 0.9299
10.7134 16.2346 -1.7017 0.9249
5.5888 11.2065 -1.0956 0.9510
4.2022 11.8069 -1.0964 0.9509
4.2684 18.9768 -1.7017 0.9249
1.9525 19.3527 -1.7017 0.9249
-0.3584 17.7948 -1.5572 0.9310
-2.7302 19.2584 -1.7017 0.9249
-5.0290 18.7896 -1.7017 0.9249
-7.2546 18.0474 -1.7017 0.9249
-9.3747 17.0427 -1.7017 0.9249
-11.3584 15.7900 -1.7017 0.9249
-12.7193 13.8108 -1.6426 0.9274
-13.4796 11.4887 -1.5495 0.9314
-13.6727 9.0587 -1.4349 0.9363
-15.8351 7.9334 -1.5495 0.9314
-16.6751 5.9692 -1.5495 0.9314
-17.2724 3.9181 -1.5495 0.9314
-19.2727 1.9800 -1.6950 0.9252
-19.4477 -0.3562 -1.7017 0.9249
-19.2633 -2.6951 -1.7017 0.9249
-18.7987 -4.9947 -1.7017 0.9249
-18.0606 -7.2217 -1.7017 0.9249
-17.0598 -9.3436 -1.7017 0.9249
-15.8107 -11.3296 -1.7017 0.9249
-14.3316 -13.1507 -1.7017 0.9249
-12.6441 -14.7806 -1.7017 0.9249
-10.7726 -16.1954 -1.7017 0.9249
-8.7443 -17.3746 -1.7017 0.9249
-6.5889 -18.3010 -1.7017 0.9249
-4.3375 -18.9611 -1.7017 0.9249
-1.1082 -10.5969 -0.9322 0.9581
0.1752 -10.6227 -0.9295 0.9582
1.4646 -10.6093 -0.9370 0.9579
4.9604 -18.8078 -1.7017 0.9249
7.1888 -18.0737 -1.7017 0.9249
9.3124 -17.0768 -1.7017 0.9249
11.3007 -15.8314 -1.7017 0.9249
13.1245 -14.3557 -1.7017 0.9249
14.7574 -12.6711 -1.7017 0.9249
16.1756 -10.8021 -1.7017 0.9249
17.3585 -8.7761 -1.7017 0.9249
18.2889 -6.6223 -1.7017 0.9249
18.9531 -4.3722 -1.7017 0.9249
19.3417 -2.0585 -1.7017 0.9249
19.4488 0.2852 -1.7017 0.9249
17.5493 2.3900 -1.5495 0.9314
17.1339 4.4855 -1.5495 0.9314
16.4692 6.5157 -1.5495 0.9314
15.5649 8.4511 -1.5495 0.9314
14.4342 10.2636 -1.5495 0.9314
13.0935 11.9268 -1.5495 0.9314
11.7125 13.5909 -1.5697 0.9305
10.8316 16.1559 -1.7017 0.9249
5.7080 11.2391 -1.1028 0.9506
4.2214 11.5921 -1.0793 0.9517
4.4068 18.9451 -1.7017 0.9249
2.0938 19.3379 -1.7017 0.9249
-0.2285 17.7969 -1.5572 0.9310
-2.5895 19.2778 -1.7017 0.9249
-4.8917 18.8258 -1.7017 0.9249
-7.1227 18.0999 -1.7017 0.9249
-9.2501 17.1107 -1.7017 0.9249
-11.2429 15.8725 -1.7017 0.9249
-12.7169 14.0121 -1.6555 0.9268
-13.3954 11.5867 -1.5495 0.9314
-13.6723 9.2027 -1.4419 0.9360
-15.7767 8.0488 -1.5495 0.9314
-16.6310 6.0908 -1.5495 0.9314
-17.2434 4.0442 -1.5495 0.9314
-19.0907 2.1023 -1.6803 0.9258
-19.4497 -0.2142 -1.7017 0.9249
-19.2825 -2.5543 -1.7017 0.9249
-18.8347 -4.8573 -1.7017 0.9249
-18.1129 -7.0896 -1.7017 0.9249
-17.1275 -9.2188 -1.7017 0.9249
-15.8930 -11.2138 -1.7017 0.9249
-14.4273 -13.0457 -1.7017 0.9249
-12.7517 -14.6878 -1.7017 0.9249
-10.8906 -16.1163 -1.7017 0.9249
-8.8710 -17.3102 -1.7017 0.9249
-6.7223 -18.2523 -1.7017 0.9249
-4.4759 -18.9289 -1.7017 0.9249
-1.1881 -10.6108 -0.9341 0.9580
0.0976 -10.6230 -0.9294 0.9582
1.3860 -10.6115 -0.9363 0.9579
2.7919 -10.9083 -0.9851 0.9558
7.0565 -18.1258 -1.7017 0.9249
9.1875 -17.1443 -1.7017 0.9249
11.1848 -15.9135 -1.7017 0.9249
13.0194 -14.4511 -1.7017 0.9249
14.6646 -12.7785 -1.7017 0.9249
16.0964 -10.9199 -1.7017 0.9249
17.2940 -8.9025 -1.7017 0.9249
18.2401 -6.7556 -1.7017 0.9249
18.9207 -4.5104 -1.7017 0.9249
19.3261 -2.1996 -1.7017 0.9249
19.4504 0.1432 -1.7017 0.9249
17.5662 2.2618 -1.5495 0.9314
17.1661 4.3603 -1.5495 0.9314
16.5164 6.3952 -1.5495 0.9314
15.6262 8.3372 -1.5495 0.9314
14.5088 10.1580 -1.5495 0.9314
12.1399 10.8970 -1.4272 0.9366
11.7152 13.3948 -1.5569 0.9310
10.9493 16.0764 -1.7017 0.9249
5.8370 11.2882 -1.1118 0.9503
4.2707 11.4663 -1.0705 0.9521
4.5450 18.9125 -1.7017 0.9249
2.2349 19.3221 -1.7017 0.9249
-0.0985 17.7981 -1.5572 0.9310
-2.4487 19.2962 -1.7017 0.9249
-4.7541 18.8610 -1.7017 0.9249
-6.9903 18.1514 -1.7017 0.9249
-9.1248 17.1778 -1.7017 0.9249
-11.1266 15.9542 -1.7017 0.9249
-12.7144 14.2166 -1.6686 0.9263
-13.3104 11.6843 -1.5495 0.9314
-13.6719 9.3482 -1.4490 0.9357
-15.7176 8.1637 -1.5495 0.9314
-16.5861 6.2120 -1.5495 0.9314
-17.2134 4.1699 -1.5495 0.9314
-18.8244 2.2122 -1.6583 0.9267
-19.4508 -0.0722 -1.7017 0.9249
-19.3006 -2.4135 -1.7017 0.9249
-18.8696 -4.7197 -1.7017 0.9249
-18.1641 -6.9572 -1.7017 0.9249
-17.1944 -9.0935 -1.7017 0.9249
-15.9745 -11.0975 -1.7017 0.9249
-14.5221 -12.9401 -1.7017 0.9249
-12.8586 -14.5944 -1.7017 0.9249
-11.0080 -16.0363 -1.7017 0.9249
-8.9972 -17.2450 -1.7017 0.9249
-6.8555 -18.2028 -1.7017 0.9249
-4.6140 -18.8957 -1.7017 0.9249
-1.2683 -10.6249 -0.9362 0.9579
0.0200 -10.6227 -0.9294 0.9582
1.3073 -10.6117 -0.9354 0.9580
2.6628 -10.7295 -0.9672 0.9566
6.9240 -18.1768 -1.7017 0.9249
9.0620 -17.2110 -1.7017 0.9249
11.0683 -15.9947 -1.7017 0.9249
12.9135 -14.5458 -1.7017 0.9249
14.5708 -12.8852 -1.7017 0.9249
16.0162 -11.0372 -1.7017 0.9249
17.2285 -9.0286 -1.7017 0.9249
18.1902 -6.8886 -1.7017 0.9249
18.8873 -4.6485 -1.7017 0.9249
19.3096 -2.3407 -1.7017 0.9249
19.4509 0.0012 -1.7017 0.9249
17.5823 2.1335 -1.5495 0.9314
17.1975 4.2348 -1.5495 0.9314
16.5626 6.2745 -1.5495 0.9314
15.6867 8.2230 -1.5495 0.9314
14.5825 10.0518 -1.5495 0.9314
12.1555 10.7519 -1.4198 0.9369
11.7570 13.2462 -1.5495 0.9314
11.0664 15.9960 -1.7017 0.9249
6.0193 11.4353 -1.1306 0.9494
4.3461 11.4133 -1.0685 0.9521
4.6829 18.8788 -1.7017 0.9249
2.3759 19.3053 -1.7017 0.9249
0.0314 17.7983 -1.5572 0.9310
-0.8609 7.2050 -0.6348 0.9713
-4.6162 18.8952 -1.7017 0.9249
-6.8576 18.2020 -1.7017 0.9249
-8.9992 17.2439 -1.7017 0.9249
-11.0098 16.0350 -1.7017 0.9249
-12.7120 14.4245 -1.6821 0.9257
-13.2247 11.7812 -1.5495 0.9314
-14.5469 10.1032 -1.5495 0.9314
-15.6575 8.2783 -1.5495 0.9314
-16.5403 6.3330 -1.5495 0.9314
-17.1825 4.2955 -1.5495 0.9314
-18.5648 2.3192 -1.6368 0.9276
-19.4508 0.0699 -1.7017 0.9249
-19.3177 -2.2725 -1.7017 0.9249
-18.9036 -4.5817 -1.7017 0.9249
-18.2145 -6.8244 -1.7017 0.9249
-17.2603 -8.9677 -1.7017 0.9249
-16.0551 -10.9805 -1.7017 0.9249
-14.6163 -12.8337 -1.7017 0.9249
-12.9648 -14.5001 -1.7017 0.9249
-11.1247 -15.9555 -1.7017 0.9249
-9.1228 -17.1788 -1.7017 0.9249
-6.9882 -18.1522 -1.7017 0.9249
-4.7518 -18.8616 -1.7017 0.9249
-1.3514 -10.6598 -0.9401 0.9578
-0.0575 -10.6228 -0.9294 0.9582
1.2286 -10.6105 -0.9345 0.9580
2.5692 -10.6854 -0.9615 0.9568
6.7911 -18.2269 -1.7017 0.9249
8.9362 -17.2767 -1.7017 0.9249
10.9513 -16.0751 -1.7017 0.9249
12.8070 -14.6396 -1.7017 0.9249
14.4763 -12.9913 -1.7017 0.9249
15.9352 -11.1539 -1.7017 0.9249
17.1621 -9.1542 -1.7017 0.9249
18.1394 -7.0213 -1.7017 0.9249
18.8528 -4.7863 -1.7017 0.9249
19.2920 -2.4817 -1.7017 0.9249
19.4504 -0.1409 -1.7017 0.9249
17.5974 2.0050 -1.5495 0.9314
17.2280 4.1091 -1.5495 0.9314
16.6080 6.1534 -1.5495 0.9314
15.7463 8.1082 -1.5495 0.9314
14.6556 9.9450 -1.5495 0.9314
12.1710 10.6081 -1.4125 0.9372
11.8534 13.1600 -1.5495 0.9314
11.1829 15.9148 -1.7017 0.9249
9.1855 17.1454 -1.7017 0.9249
4.4222 11.3632 -1.0668 0.9522
4.8207 18.8441 -1.7017 0.9249
2.5168 19.2874 -1.7017 0.9249
0.1614 17.7976 -1.5572 0.9310
-0.8071 7.2009 -0.6339 0.9713
-4.4782 18.9284 -1.7017 0.9249
-6.7245 18.2516 -1.7017 0.9249
-8.8730 17.3092 -1.7017 0.9249
-10.8925 16.1150 -1.7017 0.9249
-12.6978 14.6223 -1.6943 0.9252
-13.1384 11.8774 -1.5495 0.9314
-14.4728 10.2091 -1.5495 0.9314
-15.5967 8.3924 -1.5495 0.9314
-16.4937 6.4535 -1.5495 0.9314
-17.1507 4.4208 -1.5495 0.9314
-18.3269 2.4255 -1.6174 0.9285
-19.4498 0.2118 -1.7017 0.9249
-19.3338 -2.1313 -1.7017 0.9249
-18.9365 -4.4436 -1.7017 0.9249
-18.2638 -6.6911 -1.7017 0.9249
-17.3254 -8.8414 -1.7017 0.9249
-16.1348 -10.8630 -1.7017 0.9249
-14.7096 -12.7266 -1.7017 0.9249
-13.0704 -14.4050 -1.7017 0.9249
-11.2410 -15.8738 -1.7017 0.9249
-9.2480 -17.1118 -1.7017 0.9249
-7.1205 -18.1007 -1.7017 0.9249
-4.8895 -18.8263 -1.7017 0.9249
-1.4413 -10.7393 -0.9480 0.9574
-0.1351 -10.6234 -0.9295 0.9582
1.1500 -10.6092 -0.9336 0.9581
2.4806 -10.6587 -0.9574 0.9570
6.6578 -18.2760 -1.7017 0.9249
8.8098 -17.3415 -1.7017 0.9249
10.8335 -16.1546 -1.7017 0.9249
12.6997 -14.7328 -1.7017 0.9249
14.3811 -13.0967 -1.7017 0.9249
15.8533 -11.2700 -1.7017 0.9249
17.0948 -9.2793 -1.7017 0.9249
18.0877 -7.1536 -1.7017 0.9249
18.8174 -4.9239 -1.7017 0.9249
19.2733 -2.6225 -1.7017 0.9249
19.4489 -0.2830 -1.7017 0.9249
17.6116 1.8764 -1.5495 0.9314
17.2576 3.9831 -1.5495 0.9314
16.6525 6.0319 -1.5495 0.9314
15.8051 7.9930 -1.5495 0.9314
14.7278 9.8377 -1.5495 0.9314
12.3662 10.6204 -1.4261 0.9366
11.9492 13.0731 -1.5495 0.9314
11.2929 15.8243 -1.7008 0.9249
9.3104 17.0779 -1.7017 0.9249
4.4962 11.3082 -1.0647 0.9523
4.9582 18.8084 -1.7017 0.9249
2.6576 19.2685 -1.7017 0.9249
0.2914 17.7960 -1.5572 0.9310
-0.7565 7.2252 -0.6356 0.9713
-4.3398 18.9606 -1.7017 0.9249
-6.5910 18.3002 -1.7017 0.9249
-8.7464 17.3735 -1.7017 0.9249
-10.7745 16.1941 -1.7017 0.9249
-12.6027 14.7286 -1.6959 0.9251
-13.0513 11.9730 -1.5495 0.9314
-14.3979 10.3146 -1.5495 0.9314
-15.5350 8.5061 -1.5495 0.9314
-16.4461 6.5738 -1.5495 0.9314
-17.1179 4.5460 -1.5495 0.9314
-18.1186 2.5327 -1.6006 0.9292
-19.4477 0.3539 -1.7017 0.9249
-19.3488 -1.9902 -1.7017 0.9249
-18.9685 -4.3052 -1.7017 0.9249
-18.3122 -6.5577 -1.7017 0.9249
-17.3894 -8.7147 -1.7017 0.9249
-16.2137 -10.7449 -1.7017 0.9249
-14.8021 -12.6189 -1.7017 0.9249
-13.1752 -14.3092 -1.7017 0.9249
-11.3565 -15.7914 -1.7017 0.9249
-9.3727 -17.0438 -1.7017 0.9249
-8.5783 10.8857 -1.7017 0.9457
-9.8265 9.7737 -1.7017 0.9457
-10.9318 8.5196 -1.7017 0.9457
-11.8780 7.1414 -1.7017 0.9457
-12.6514 5.6594 -1.7017 0.9457
-13.2407 4.0950 -1.7017 0.9457
-13.6375 2.4711 -1.7017 0.9457
-13.8358 0.8112 -1.7017 0.9457
-13.8328 -0.8605 -1.7017 0.9457
-13.6286 -2.5196 -1.7017 0.9457
-13.2261 -4.1422 -1.7017 0.9457
-12.6312 -5.7044 -1.7017 0.9457
-11.8525 -7.1837 -1.7017 0.9457
-10.9014 -8.5584 -1.7017 0.9457
-9.7917 -9.8087 -1.7017 0.9457
-8.5395 -10.9162 -1.7017 0.9457
-7.1631 -11.8649 -1.7017 0.9457
-5.6825 -12.6410 -1.7017 0.9457
-4.1192 -13.2332 -1.7017 0.9457
-2.4960 -13.6329 -1.7017 0.9457
-0.6584 -10.8884 -1.3394 0.9570
0.6390 -10.5836 -1.3019 0.9582
1.9361 -10.5802 -1.3207 0.9576
4.1180 -13.2336 -1.7017 0.9457
5.6813 -12.6416 -1.7017 0.9457
7.1620 -11.8656 -1.7017 0.9457
8.5385 -10.9170 -1.7017 0.9457
9.7908 -9.8096 -1.7017 0.9457
10.9006 -8.5594 -1.7017 0.9457
11.8518 -7.1847 -1.7017 0.9457
12.6306 -5.7056 -1.7017 0.9457
13.2257 -4.1434 -1.7017 0.9457
13.6283 -2.5209 -1.7017 0.9457
13.8327 -0.8617 -1.7017 0.9457
13.8358 0.8099 -1.7017 0.9457
13.6377 2.4699 -1.7017 0.9457
13.2237 4.0885 -1.6995 0.9457
12.5661 5.6199 -1.6902 0.9460
11.8406 7.1175 -1.6963 0.9458
10.9326 8.5185 -1.7017 0.9457
9.8274 9.7728 -1.7017 0.9457
8.5793 10.8849 -1.7017 0.9457
7.2064 11.8387 -1.7017 0.9457
5.7286 12.6202 -1.7017 0.9457
4.1675 13.2181 -1.7017 0.9457
2.5458 13.6237 -1.7017 0.9457
0.8116 12.6560 -1.5572 0.9502
-0.7180 12.6617 -1.5572 0.9502
-2.4450 13.6422 -1.7017 0.9457
-4.0697 13.2486 -1.7017 0.9457
-5.6351 12.6622 -1.7017 0.9457
-7.1187 11.8916 -1.7017 0.9457
-8.4986 10.9481 -1.7017 0.9457
-9.7549 9.8452 -1.7017 0.9457
-10.8693 8.5992 -1.7017 0.9457
-11.8255 7.2280 -1.7017 0.9457
-12.6097 5.7516 -1.7017 0.9457
-13.2105 4.1916 -1.7017 0.9457
-13.6190 2.5706 -1.7017 0.9457
-13.8295 0.9122 -1.7017 0.9457
-13.8387 -0.7594 -1.7017 0.9457
-13.6466 -2.4201 -1.7017 0.9457
-13.2560 -4.0455 -1.7017 0.9457
-12.6725 -5.6120 -1.7017 0.9457
-11.9046 -7.0969 -1.7017 0.9457
-10.9636 -8.4786 -1.7017 0.9457
-9.8630 -9.7369 -1.7017 0.9457
-8.6190 -10.8535 -1.7017 0.9457
-7.2495 -11.8123 -1.7017 0.9457
-5.7746 -12.5992 -1.7017 0.9457
-4.2157 -13.2028 -1.7017 0.9457
-2.5955 -13.6143 -1.7017 0.9457
-0.7173 -10.5802 -1.3021 0.9582
0.5617 -10.5887 -1.3020 0.9582
1.8564 -10.5802 -1.3189 0.9576
4.0213 -13.2633 -1.7017 0.9457
5.5889 -12.6827 -1.7017 0.9457
7.0752 -11.9176 -1.7017 0.9457
8.4586 -10.9790 -1.7017 0.9457
9.7189 -9.8808 -1.7017 0.9457
10.8378 -8.6388 -1.7017 0.9457
11.7990 -7.2711 -1.7017 0.9457
12.5886 -5.7976 -1.7017 0.9457
13.1951 -4.2398 -1.7017 0.9457
13.6096 -2.6203 -1.7017 0.9457
13.8260 -0.9627 -1.7017 0.9457
13.8414 0.7089 -1.7017 0.9457
13.6553 2.3702 -1.7017 0.9457
13.2582 3.9933 -1.7001 0.9457
12.6162 5.5321 -1.6915 0.9460
11.8892 7.0290 -1.6959 0.9459
10.9945 8.4385 -1.7017 0.9457
9.8985 9.7008 -1.7017 0.9457
8.6585 10.8220 -1.7017 0.9457
7.2926 11.7858 -1.7017 0.9457
5.8206 12.5780 -1.7017 0.9457
4.2639 13.1873 -1.7017 0.9457
2.6452 13.6048 -1.7017 0.9457
0.9040 12.6498 -1.5572 0.9502
-0.6256 12.6666 -1.5572 0.9502
-2.1460 12.4991 -1.5572 0.9502
-3.9728 13.2779 -1.7017 0.9457
-5.5425 12.7030 -1.7017 0.9457
-7.0316 11.9433 -1.7017 0.9457
-8.4184 11.0098 -1.7017 0.9457
-9.6827 9.9162 -1.7017 0.9457
-10.8062 8.6783 -1.7017 0.9457
-11.7724 7.3141 -1.7017 0.9457
-12.5674 5.8436 -1.7017 0.9457
-13.1795 4.2880 -1.7017 0.9457
-13.5999 2.6700 -1.7017 0.9457
-13.8224 1.0132 -1.7017 0.9457
-13.8439 -0.6584 -1.7017 0.9457
-13.6639 -2.3204 -1.7017 0.9457
-13.2852 -3.9486 -1.7017 0.9457
-12.7131 -5.5193 -1.7017 0.9457
-11.9561 -7.0098 -1.7017 0.9457
-11.0252 -8.3983 -1.7017 0.9457
-9.9339 -9.6646 -1.7017 0.9457
-8.6980 -10.7903 -1.7017 0.9457
-7.3356 -11.7590 -1.7017 0.9457
-5.8665 -12.5567 -1.7017 0.9457
-4.3120 -13.1717 -1.7017 0.9457
-2.6948 -13.5950 -1.7017 0.9457
-0.7950 -10.5802 -1.3027 0.9581
0.4844 -10.5938 -1.3021 0.9582
1.7768 -10.5802 -1.3173 0.9577
3.9243 -13.2923 -1.7017 0.9457
5.4961 -12.7232 -1.7017 0.9457
6.9880 -11.9689 -1.7017 0.9457
8.3782 -11.0405 -1.7017 0.9457
9.6465 -9.9515 -1.7017 0.9457
10.7744 -8.7177 -1.7017 0.9457
11.7456 -7.3571 -1.7017 0.9457
12.5460 -5.8894 -1.7017 0.9457
13.1638 -4.3361 -1.7017 0.9457
13.5901 -2.7196 -1.7017 0.9457
13.8186 -1.0636 -1.7017 0.9457
13.8462 0.6078 -1.7017 0.9457
13.6723 2.2704 -1.7017 0.9457
13.2922 3.8979 -1.7008 0.9457
12.6680 5.4449 -1.6930 0.9459
11.9372 6.9403 -1.6954 0.9459
11.0558 8.3580 -1.7017 0.9457
9.9691 9.6283 -1.7017 0.9457
8.7373 10.7585 -1.7017 0.9457
7.3784 11.7322 -1.7017 0.9457
5.9123 12.5352 -1.7017 0.9457
4.3601 13.1558 -1.7017 0.9457
2.7444 13.5851 -1.7017 0.9457
0.9963 12.6428 -1.5572 0.9502
-0.5331 12.6708 -1.5572 0.9502
-2.0547 12.5145 -1.5572 0.9502
-3.8758 13.3066 -1.7017 0.9457
-5.4496 12.7432 -1.7017 0.9457
-6.9442 11.9943 -1.7017 0.9457
-8.3378 11.0710 -1.7017 0.9457
-9.6101 9.9866 -1.7017 0.9457
-10.7425 8.7570 -1.7017 0.9457
-11.7187 7.3999 -1.7017 0.9457
-12.5244 5.9352 -1.7017 0.9457
-13.1479 4.3841 -1.7017 0.9457
-13.5801 2.7692 -1.7017 0.9457
-13.8147 1.1141 -1.7017 0.9457
-13.8483 -0.5573 -1.7017 0.9457
-13.6805 -2.2205 -1.7017 0.9457
-13.3136 -3.8515 -1.7017 0.9457
-12.7531 -5.4264 -1.7017 0.9457
-12.0070 -6.9223 -1.7017 0.9457
-11.0862 -8.3176 -1.7017 0.9457
-10.0042 -9.5918 -1.7017 0.9457
-8.7766 -10.7265 -1.7017 0.9457
-7.4213 -11.7052 -1.7017 0.9457
-5.9580 -12.5135 -1.7017 0.9457
-4.4081 -13.1398 -1.7017 0.9457
-2.7940 -13.5750 -1.7017 0.9457
-0.8727 -10.5802 -1.3035 0.9581
0.4071 -10.5967 -1.3021 0.9582
1.6975 -10.5802 -1.3157 0.9577
3.8272 -13.3206 -1.7017 0.9457
5.4031 -12.7630 -1.7017 0.9457
6.9004 -12.0196 -1.7017 0.9457
8.2973 -11.1014 -1.7017 0.9457
9.5736 -10.0216 -1.7017 0.9457
10.7105 -8.7961 -1.7017 0.9457
11.6916 -7.4426 -1.7017 0.9457
12.5026 -5.9808 -1.7017 0.9457
13.1318 -4.4321 -1.7017 0.9457
13.5699 -2.8188 -1.7017 0.9457
13.8105 -1.1645 -1.7017 0.9457
13.8503 0.5067 -1.7017 0.9457
13.6885 2.1706 -1.7017 0.9457
13.3255 3.8022 -1.7015 0.9457
12.7161 5.3559 -1.6942 0.9459
11.9857 6.8519 -1.6952 0.9459
11.1165 8.2771 -1.7017 0.9457
10.0391 9.5552 -1.7017 0.9457
8.8156 10.6944 -1.7017 0.9457
7.4640 11.6780 -1.7017 0.9457
6.0036 12.4917 -1.7017 0.9457
4.4560 13.1237 -1.7017 0.9457
2.8436 13.5647 -1.7017 0.9457
1.0887 12.6352 -1.5572 0.9502
-0.4405 12.6744 -1.5572 0.9502
-1.9633 12.5291 -1.5572 0.9502
-3.7785 13.3345 -1.7017 0.9457
-5.3564 12.7826 -1.7017 0.9457
-6.8565 12.0447 -1.7017 0.9457
-8.2567 11.1316 -1.7017 0.9457
-9.5369 10.0565 -1.7017 0.9457
-10.6783 8.8352 -1.7017 0.9457
-11.6644 7.4853 -1.7017 0.9457
-12.4807 6.0264 -1.7017 0.9457
-13.1155 4.4800 -1.7017 0.9457
-13.5595 2.8683 -1.7017 0.9457
