ply
format ascii 1.0
element vertex 1558
property float32 x
property float32 y
property float32 z
property float32 I
end_header
-1.4297 -43.2944 5.3188 0.8398
2.0151 -22.9353 2.8270 0.9114
20.8731 -61.1528 7.9340 0.7707
19.4327 -40.2724 5.4904 0.8351
19.4603 -30.3460 4.4263 0.8648
21.1508 -25.5817 4.0756 0.8748
21.1376 -20.0614 3.5782 0.8892
26.7657 -19.8715 4.0931 0.8743
32.0488 -18.2645 4.5293 0.8619
55.0551 -23.1047 7.3311 0.7861
62.8893 -17.8595 8.0272 0.7684
36.2094 7.5621 4.5419 0.8615
20.3433 6.8894 2.6372 0.9171
20.2215 9.6978 2.7537 0.9136
20.2656 12.9275 2.9515 0.9077
20.2408 16.6535 3.2183 0.8998
20.2536 21.2379 3.6034 0.8885
22.3354 29.9341 4.5858 0.8603
33.1544 78.4742 10.4601 0.7094
22.4927 78.4880 10.0250 0.7196
12.5376 78.4641 9.7564 0.7260
3.1404 83.0293 10.2020 0.7154
-7.2937 87.8404 10.8226 0.7010
-16.1949 78.4838 9.8396 0.7240
-25.3437 75.4312 9.7706 0.7256
-16.0655 33.7061 4.5847 0.8603
-16.2636 25.6305 3.7271 0.8849
-16.1045 19.6695 3.1214 0.9026
-16.1113 15.4385 2.7398 0.9140
-16.1206 12.0886 2.4741 0.9220
-16.1284 9.2942 2.2856 0.9277
-18.4755 7.8579 2.4652 0.9223
-27.4504 7.9378 3.5086 0.8912
-48.1189 -22.7939 6.5376 0.8069
-36.3084 -22.9172 5.2719 0.8411
-29.0036 -23.6311 4.5936 0.8600
-28.7716 -29.8819 5.0933 0.8461
-25.9007 -34.3675 5.2840 0.8408
-19.5388 -33.7189 4.7850 0.8547
-19.5571 -45.6786 6.1011 0.8185
-19.5151 -66.8852 8.5549 0.7552
1.9447 -24.8652 3.0624 0.9044
21.0676 -63.7133 8.2396 0.7630
19.4299 -41.2731 5.6012 0.8321
19.4585 -30.9930 4.4933 0.8629
20.7404 -25.5806 4.0436 0.8757
21.2862 -20.5939 3.6366 0.8875
23.8011 -18.0270 3.6660 0.8866
29.9875 -17.4726 4.2614 0.8695
54.7661 -23.6035 7.3224 0.7864
63.2838 -18.6289 8.0999 0.7665
36.2084 7.2005 4.5329 0.8618
21.0304 6.8980 2.7176 0.9147
20.2209 9.4602 2.7411 0.9140
20.2649 12.6554 2.9336 0.9082
20.2399 16.3299 3.1932 0.9005
20.2876 20.8693 3.5737 0.8893
22.3091 29.3087 4.5225 0.8621
33.9863 78.3402 10.4852 0.7088
23.2468 78.2788 10.0263 0.7196
13.2917 78.3546 9.7582 0.7259
3.8842 81.9061 10.0681 0.7186
-6.4810 88.3066 10.8718 0.6999
-18.0702 92.0208 11.5145 0.6853
-24.8223 76.2935 9.8510 0.7237
-16.0632 34.5498 4.6783 0.8577
-16.0872 25.8981 3.7434 0.8844
-16.1035 20.0573 3.1583 0.9015
-16.1105 15.7366 2.7652 0.9132
-16.1199 12.3313 2.4920 0.9215
-16.1278 9.5009 2.2983 0.9273
-17.9916 7.8565 2.4105 0.9239
-26.3017 7.8796 3.3713 0.8953
-46.0755 7.9296 5.7405 0.8283
-50.2418 -23.2124 6.7955 0.8001
-36.8121 -22.7447 5.3131 0.8400
-29.3776 -23.4709 4.6170 0.8594
-29.2814 -29.8336 5.1327 0.8450
-26.0768 -33.9199 5.2533 0.8416
-19.6517 -33.1768 4.7346 0.8561
-19.5538 -44.4872 5.9667 0.8221
-19.6318 -64.9632 8.3327 0.7607
2.7414 -39.9767 4.9201 0.8509
21.0350 -65.7219 8.4729 0.7572
19.4270 -42.3145 5.7170 0.8289
19.5701 -31.8443 4.5893 0.8602
20.1487 -25.3437 3.9754 0.8777
22.0198 -21.7160 3.7973 0.8828
23.2352 -17.9513 3.6052 0.8884
30.2625 -18.0237 4.3249 0.8677
54.7128 -24.2048 7.3459 0.7858
63.6310 -19.3956 8.1678 0.7648
36.3160 6.8607 4.5379 0.8616
21.8343 6.9307 2.8127 0.9118
20.2202 9.2248 2.7289 0.9143
20.2641 12.3865 2.9161 0.9087
20.2391 16.0115 3.1687 0.9012
20.2865 20.4719 3.5388 0.8903
22.3321 28.7625 4.4711 0.8635
34.7354 78.0110 10.4852 0.7088
24.1479 78.5459 10.0897 0.7181
14.0825 78.4497 9.7864 0.7253
2.2764 39.9139 4.9088 0.8512
-5.6604 88.7773 10.9226 0.6987
-17.2365 92.4518 11.5473 0.6845
-24.5373 77.9485 10.0339 0.7194
-16.0607 35.4292 4.7763 0.8549
-16.0857 26.4580 3.8019 0.8827
-16.1023 20.4544 3.1963 0.9004
-16.1096 16.0404 2.7913 0.9125
-16.1192 12.5775 2.5104 0.9209
-16.1272 9.7099 2.3114 0.9269
-17.5285 7.8553 2.3585 0.9255
-25.4052 7.8771 3.2659 0.8984
-43.5343 7.9225 5.4331 0.8367
-40.8841 2.4301 5.0288 0.8478
-93.9655 -17.2859 11.7311 0.6804
-51.4108 -23.1573 6.9233 0.7967
-37.5712 -22.7191 5.3910 0.8378
-29.7968 -23.3414 4.6475 0.8585
-23.6715 -23.6600 4.1094 0.8738
-26.0743 -33.2523 5.1884 0.8434
-19.8028 -32.7126 4.6952 0.8572
-19.5506 -43.3475 5.8387 0.8256
-19.5400 -62.4907 8.0392 0.7681
2.3536 -39.9231 4.9104 0.8511
7.8669 -43.3484 5.4094 0.8373
21.0052 -67.8621 8.7224 0.7510
19.1939 -42.8857 5.7690 0.8275
19.4360 -32.3166 4.6303 0.8590
19.7022 -25.2756 3.9349 0.8788
20.4159 -20.5238 3.5545 0.8899
23.0377 -18.1542 3.6014 0.8885
29.3512 -17.8642 4.2189 0.8707
54.6307 -24.7972 7.3665 0.7852
64.4395 -20.3192 8.2962 0.7616
45.0182 8.0586 5.6154 0.8317
22.4632 6.8941 2.8851 0.9097
20.2196 8.9913 2.7170 0.9147
20.2634 12.1209 2.8992 0.9092
20.2382 15.6978 3.1448 0.9019
20.2503 20.0473 3.4987 0.8915
22.3306 28.1984 4.4165 0.8651
35.5842 77.8985 10.5154 0.7081
24.9735 78.5436 10.1197 0.7174
14.8585 78.4421 9.8027 0.7249
5.2902 79.3644 9.7663 0.7257
-4.8323 89.2523 10.9749 0.6975
-16.3467 92.5961 11.5452 0.6846
-23.8401 78.3485 10.0555 0.7189
-15.9918 36.1956 4.8587 0.8526
-15.8252 26.6005 3.8004 0.8827
-16.1012 20.8614 3.2357 0.8992
-16.1636 16.4056 2.8278 0.9114
-16.0858 12.8013 2.5242 0.9205
-16.1266 9.9215 2.3248 0.9265
-17.0852 7.8540 2.3088 0.9270
-25.1156 8.0520 3.2384 0.8992
-40.2583 7.7258 5.0333 0.8477
-40.8884 2.8238 5.0324 0.8477
-52.6354 -23.1047 7.0580 0.7932
-39.2828 -23.2428 5.6044 0.8320
-30.2937 -23.2657 4.6900 0.8573
-23.9410 -23.4751 4.1169 0.8736
-19.1531 -23.9492 3.7653 0.8837
-19.8894 -32.1559 4.6425 0.8587
-19.0158 -41.1061 5.5611 0.8332
-19.5165 -60.3771 7.7911 0.7744
1.9660 -39.8498 4.8989 0.8515
7.4407 -43.3607 5.4018 0.8375
21.0491 -70.3848 9.0203 0.7437
19.4209 -44.5331 5.9653 0.8222
19.2521 -32.7168 4.6610 0.8581
19.4020 -25.3885 3.9234 0.8792
21.6569 -22.1930 3.8074 0.8825
21.4798 -17.2626 3.3836 0.8949
29.6790 -18.4558 4.2912 0.8686
54.3473 -25.2997 7.3606 0.7854
65.2564 -21.2665 8.4272 0.7584
43.0415 2.0202 5.2906 0.8406
45.0933 7.6268 5.6154 0.8317
23.3650 6.9264 2.9923 0.9065
20.2189 8.7599 2.7056 0.9150
20.2275 11.8377 2.8777 0.9099
20.2725 15.4154 3.1271 0.9025
20.2843 19.6997 3.4719 0.8923
22.3290 27.6479 4.3636 0.8666
36.4823 77.8811 10.5598 0.7071
25.8041 78.5412 10.1508 0.7166
15.6373 78.4341 9.8200 0.7245
5.9989 78.6339 9.6831 0.7277
-3.9963 89.7319 11.0286 0.6963
-15.0965 90.5783 11.2750 0.6907
-23.1401 78.7500 10.0781 0.7184
-15.9151 36.9764 4.9428 0.8502
-15.7479 27.0576 3.8440 0.8815
-16.2750 21.5097 3.3119 0.8970
-16.1627 16.7223 2.8555 0.9105
-16.1178 13.0811 2.5488 0.9197
-16.1260 10.1354 2.3386 0.9261
-16.6600 7.8528 2.2614 0.9285
-23.7698 7.8726 3.0745 0.9040
-38.8522 7.8427 4.8667 0.8524
-93.2719 -15.3160 11.6057 0.6832
-52.8710 -22.6061 7.0603 0.7932
-40.1521 -23.2405 5.6963 0.8295
-30.7203 -23.1287 4.7215 0.8564
-24.2646 -23.3403 4.1339 0.8731
-19.1518 -23.4826 3.7206 0.8850
-19.5931 -31.0087 4.5038 0.8626
-19.0130 -40.0868 5.4476 0.8363
-19.4914 -58.3819 7.5573 0.7803
1.6045 -40.3809 4.9621 0.8497
6.6583 -41.1640 5.1200 0.8453
21.0421 -72.9002 9.3164 0.7365
15.1527 -35.6751 4.7591 0.8554
13.4175 -23.3097 3.3023 0.8973
19.4724 -25.9934 3.9878 0.8773
20.1289 -21.0266 3.5740 0.8893
22.1171 -18.1264 3.5112 0.8911
28.8699 -18.3388 4.1995 0.8712
54.2963 -25.9119 7.3870 0.7847
71.0815 -23.9207 9.2087 0.7392
77.6915 -16.0708 9.7413 0.7263
45.1644 7.1942 5.6154 0.8317
24.2060 6.9241 3.0913 0.9035
20.2183 8.5304 2.6944 0.9154
20.2619 11.5985 2.8666 0.9102
20.2717 15.1104 3.1044 0.9031
20.2833 19.3245 3.4398 0.8932
22.3276 27.1102 4.3123 0.8680
26.6403 78.5389 10.1830 0.7159
16.4187 78.4258 9.8382 0.7240
6.7615 78.6818 9.6965 0.7274
-3.0987 88.7021 10.8979 0.6993
-13.9620 89.0239 11.0644 0.6955
-22.4369 79.1534 10.1017 0.7178
-15.8634 37.8516 5.0392 0.8476
-15.5712 27.3537 3.8647 0.8809
-16.2738 21.9419 3.3543 0.8958
-16.1618 17.0454 2.8841 0.9097
-16.1171 13.3387 2.5688 0.9191
-16.1254 10.3519 2.3528 0.9257
-16.2518 7.8517 2.2161 0.9298
-23.0220 7.8705 2.9874 0.9066
-37.3147 7.9052 4.6834 0.8575
-53.7627 -22.3804 7.1503 0.7908
-41.0501 -23.2380 5.7919 0.8269
-31.0614 -22.9222 4.7399 0.8559
-24.6693 -23.2786 4.1647 0.8722
-19.1505 -23.0270 3.6774 0.8863
-19.1691 -29.7031 4.3406 0.8672
-19.4639 -40.0419 5.4666 0.8358
-18.7593 -54.4463 7.0708 0.7929
1.1995 -39.8000 4.8890 0.8517
6.5785 -43.3005 5.3776 0.8382
21.0346 -75.5856 9.6334 0.7289
19.4141 -46.9537 6.2386 0.8148
19.5137 -34.6649 4.8844 0.8519
19.6466 -26.7565 4.0758 0.8748
20.2428 -21.5553 3.6308 0.8877
22.0593 -18.4354 3.5299 0.8906
30.9333 -20.0681 4.5274 0.8619
34.8114 -17.0246 4.7581 0.8554
68.9287 -23.9347 8.9591 0.7452
45.7229 6.8345 5.6764 0.8300
25.1046 6.9216 3.1975 0.9004
20.2177 8.3026 2.6836 0.9157
20.2612 11.3416 2.8510 0.9107
20.2709 14.8096 3.0824 0.9038
20.2823 18.9559 3.4087 0.8942
20.2565 24.1207 3.8675 0.8808
27.4818 78.5366 10.2164 0.7151
17.2042 78.4216 9.8579 0.7236
7.5219 78.6796 9.7047 0.7272
-2.2635 89.3489 10.9742 0.6975
-12.5519 85.3748 10.5954 0.7063
-21.7297 79.5591 10.1264 0.7172
-32.1039 78.7115 10.4375 0.7099
-16.2537 29.2002 4.1033 0.8740
-16.0976 22.1450 3.3616 0.8955
-16.1060 17.3162 2.9037 0.9091
-11.0284 9.3069 1.7719 0.9435
-16.1248 10.5713 2.3674 0.9252
-16.1320 7.9855 2.2102 0.9300
-22.8037 8.0409 2.9689 0.9072
-35.6279 7.9055 4.4810 0.8632
-57.0079 -23.0926 7.5522 0.7805
-41.9793 -23.2354 5.8913 0.8242
-31.6908 -22.9205 4.8022 0.8542
-24.7785 -22.9364 4.1458 0.8728
-19.4629 -22.9512 3.6949 0.8858
-19.1674 -29.0845 4.2769 0.8690
-19.5382 -39.2336 5.3816 0.8381
-19.2516 -54.1827 7.0603 0.7932
19.6212 -49.5778 4.6648 0.8073
19.4272 -35.7736 3.5615 0.8492
19.2554 -27.0779 2.9069 0.8751
22.8340 -25.0682 2.9666 0.8727
21.5209 -18.5488 2.4857 0.8922
31.2970 -20.9875 3.2968 0.8596
54.8167 -27.8496 5.3793 0.7812
65.6078 -23.9057 6.1091 0.7555
66.1145 -15.3949 5.9390 0.7614
65.3426 8.7530 5.7678 0.7674
28.6107 7.4217 2.5860 0.8881
22.4237 8.8125 2.1079 0.9078
21.5421 11.6318 2.1419 0.9064
22.1735 15.6879 2.3764 0.8967
19.3394 17.5311 2.2837 0.9005
19.3527 22.3451 2.5862 0.8881
20.3080 30.1275 3.1787 0.8643
28.7525 78.3255 7.2997 0.7153
18.4430 78.3542 7.0424 0.7238
8.7313 78.6763 6.9255 0.7277
-0.9054 89.4504 7.8263 0.6982
-11.0982 84.3851 7.4463 0.7105
-20.6010 80.2066 7.2449 0.7171
-32.0958 82.2475 7.7242 0.7015
-16.0760 29.9439 2.9734 0.8724
-16.0502 22.8012 2.4395 0.8941
-16.1096 17.8570 2.1041 0.9079
-16.0054 13.9292 1.8563 0.9183
-16.1238 10.9249 1.7040 0.9248
-16.1312 8.2929 1.5869 0.9298
-20.9412 7.7443 1.9534 0.9143
-33.2009 7.8988 2.9858 0.8719
-92.9952 -0.7185 8.1363 0.6884
-59.3850 -23.0102 5.5719 0.7744
-42.8811 -22.8893 4.2526 0.8227
-42.1562 -29.5238 4.5027 0.8133
-25.5447 -22.9343 3.0034 0.8712
-20.0694 -22.9495 2.6673 0.8848
-19.3561 -28.4205 3.0084 0.8710
-20.3771 -39.4043 3.8811 0.8368
-19.2399 -51.6456 4.8218 0.8015
-18.8658 -78.4629 7.0603 0.7232
0.2252 -42.2591 3.6972 0.8439
5.1907 -40.9862 3.6145 0.8471
20.9801 -83.3383 7.5187 0.7082
19.4045 -50.4376 4.7280 0.8049
19.5647 -36.8651 3.6513 0.8457
19.2743 -27.6621 2.9497 0.8734
22.4872 -25.1678 2.9528 0.8733
21.4990 -18.8921 2.5039 0.8914
31.1456 -21.3215 3.3022 0.8594
54.2389 -28.2134 5.3489 0.7823
64.7770 -24.3087 6.0532 0.7574
65.4099 -15.8932 5.8891 0.7632
65.4235 8.1264 5.7678 0.7674
28.6806 7.1472 2.5860 0.8881
23.0662 8.8107 2.1602 0.9056
21.5216 11.3557 2.1289 0.9069
21.8949 15.1781 2.3308 0.8986
19.3384 17.1955 2.2640 0.9013
19.3515 21.9158 2.5579 0.8892
20.2713 29.4598 3.1286 0.8662
29.7615 78.7331 7.3640 0.7132
19.3093 78.6469 7.0851 0.7224
9.5222 78.8972 6.9527 0.7268
-0.0480 89.3636 7.8183 0.6985
-10.2723 84.3516 7.4343 0.7109
-19.6670 79.7345 7.1849 0.7191
-16.9056 44.5784 4.1711 0.8258
-16.0740 30.6415 3.0273 0.8703
-10.3540 15.0127 1.5955 0.9294
-16.1086 18.2037 2.1266 0.9070
-15.8690 14.0801 1.8561 0.9183
-16.1232 11.1514 1.7151 0.9243
-16.1306 8.4891 1.5947 0.9294
-20.6541 7.8639 1.9335 0.9151
-31.8269 7.8950 2.8689 0.8766
-60.1771 -22.6562 5.6256 0.7725
-59.3777 -30.9674 5.8589 0.7642
-42.9104 -29.4431 4.5530 0.8114
-26.0448 -22.9362 3.0362 0.8699
-20.7118 -23.2310 2.7229 0.8825
-19.3553 -27.8420 2.9666 0.8727
-26.2558 -49.6014 4.9100 0.7982
-19.5212 -50.9038 4.7698 0.8034
-19.5460 -77.9952 7.0347 0.7241
-0.1829 -42.9768 3.7600 0.8415
4.8156 -41.1869 3.6279 0.8466
19.4410 -52.0148 4.8582 0.8001
19.3516 -37.3230 3.6782 0.8447
19.2597 -28.2138 2.9887 0.8718
22.0529 -25.1631 2.9273 0.8743
21.4605 -19.2258 2.5208 0.8907
31.4618 -21.9838 3.3579 0.8572
53.8544 -28.6725 5.3378 0.7827
64.7594 -25.0128 6.0736 0.7567
63.8036 -16.1522 5.7582 0.7678
58.4417 6.6910 5.1464 0.7896
28.7477 6.8720 2.5860 0.8881
23.7415 8.8088 2.2155 0.9033
21.4954 11.0798 2.1157 0.9075
21.8206 14.8189 2.3077 0.8995
19.6052 17.0991 2.2760 0.9008
19.3504 21.4956 2.5304 0.8904
20.3047 28.9110 3.0909 0.8677
24.1022 45.0098 4.4669 0.8146
30.5813 78.6155 7.3800 0.7127
20.1548 78.8208 7.1178 0.7213
10.2609 78.6720 6.9412 0.7272
0.7900 87.3000 7.6381 0.7043
-9.5023 84.7933 7.4649 0.7099
-18.8319 79.6232 7.1583 0.7200
-30.2033 82.0056 7.6457 0.7041
-16.2467 31.7056 3.1169 0.8667
-15.5831 23.0645 2.4353 0.8943
-16.1076 18.5580 2.1499 0.9060
-15.9768 14.4518 1.8848 0.9171
-16.1226 11.3809 1.7266 0.9238
-16.2613 8.7579 1.6159 0.9285
-20.0692 7.8623 1.8858 0.9171
-30.5564 7.8915 2.7610 0.8810
-20.8849 2.7749 1.8432 0.9189
-46.2748 -23.5725 4.5435 0.8118
-35.4567 -23.8321 3.7377 0.8424
-26.7210 -23.0807 3.0891 0.8678
-21.0309 -23.1385 2.7356 0.8820
-19.4502 -27.4141 2.9408 0.8737
-19.1850 -35.4182 3.5241 0.8507
-19.7637 -50.0949 4.7115 0.8055
-19.4028 -74.3922 6.7262 0.7344
-0.5766 -41.6623 3.6453 0.8459
4.3033 -40.1380 3.5317 0.8504
19.3961 -53.4512 4.9748 0.7959
19.2375 -37.9897 3.7255 0.8428
19.2445 -28.7802 3.0290 0.8702
21.6108 -25.1407 2.9005 0.8754
21.7596 -19.8730 2.5782 0.8884
37.9945 -27.0941 4.0827 0.8291
53.3295 -29.0524 5.3131 0.7836
64.7405 -25.7213 6.0947 0.7560
65.4883 -17.2482 5.9249 0.7619
76.9849 8.0672 6.7722 0.7329
30.0218 6.8730 2.6945 0.8837
22.9105 8.2515 2.1304 0.9069
21.4699 10.8075 2.1029 0.9080
21.7905 14.4953 2.2897 0.9002
19.9876 17.0980 2.3012 0.8998
19.3492 21.0843 2.5037 0.8915
20.3031 28.3275 3.0492 0.8694
24.1109 44.0072 4.3901 0.8175
31.4512 78.6131 7.4078 0.7118
1.9482 7.3256 0.6632 0.9700
11.0285 78.6699 6.9500 0.7269
1.6115 86.4708 7.5665 0.7066
-8.7553 85.5261 7.5217 0.7081
-18.0697 79.8081 7.1590 0.7200
-27.7551 77.6454 7.2141 0.7181
-16.0699 32.1154 3.1419 0.8657
-15.5368 23.4781 2.4631 0.8931
-16.1066 18.9202 2.1739 0.9050
-15.9620 14.7190 1.8996 0.9165
-16.1219 11.6136 1.7383 0.9233
-16.2128 8.9333 1.6195 0.9284
-19.5126 7.8608 1.8405 0.9190
-29.3777 7.8882 2.6613 0.8850
-46.8419 -23.2986 4.5771 0.8105
-35.6569 -23.4736 3.7349 0.8425
-27.2283 -23.0670 3.1221 0.8665
-21.4307 -23.1291 2.7586 0.8811
-19.8645 -27.4369 2.9635 0.8728
-19.1828 -34.6178 3.4626 0.8531
-19.7938 -48.7958 4.6069 0.8094
-19.6315 -72.4194 6.5645 0.7399
-0.9740 -41.5734 3.6382 0.8462
3.8655 -39.6343 3.4840 0.8522
19.3411 -54.9362 5.0955 0.7915
19.6105 -39.6652 3.8712 0.8372
15.2523 -23.2898 2.4357 0.8942
21.1768 -25.1190 2.8744 0.8764
20.6260 -19.2035 2.4656 0.8930
30.1603 -21.9465 3.2633 0.8609
54.2804 -30.2487 5.4365 0.7792
64.7709 -26.4550 6.1212 0.7551
63.6520 -17.4185 5.7736 0.7672
31.5662 6.9088 2.8271 0.8783
24.1280 8.4297 2.2360 0.9025
21.4452 10.5387 2.0905 0.9085
21.7629 14.1779 2.2724 0.9010
20.2418 16.9822 2.3116 0.8993
19.3481 20.6817 2.4778 0.8925
20.3015 27.7594 3.0088 0.8710
24.1212 43.0419 4.3167 0.8203
32.3749 78.7259 7.4473 0.7105
2.0168 7.3012 0.6627 0.9700
11.8316 78.8907 6.9792 0.7259
2.4017 85.0933 7.4477 0.7105
-8.0993 87.3782 7.6774 0.7030
-17.3562 80.2197 7.1807 0.7192
-26.0172 75.0449 6.9490 0.7269
-16.0194 32.7962 3.1933 0.8637
-15.8987 24.5326 2.5576 0.8892
-16.1056 19.2905 2.1986 0.9040
-15.9607 15.0033 1.9165 0.9158
-16.1213 11.8495 1.7504 0.9228
-16.1289 9.0897 1.6198 0.9284
-18.9819 7.8593 1.7974 0.9208
-28.2812 7.8851 2.5687 0.8888
-47.8246 -23.2182 4.6511 0.8078
-36.1381 -23.2971 3.7617 0.8414
-28.5455 -23.7166 3.2469 0.8616
-28.8184 -30.5104 3.6718 0.8449
-20.2665 -27.4348 2.9841 0.8720
-19.5147 -34.4341 3.4627 0.8531
-19.2147 -46.0948 4.3691 0.8183
-19.3271 -68.6834 6.2424 0.7509
-2.1134 -63.9974 5.6021 0.7733
2.0149 -22.9326 2.0141 0.9117
20.8434 -61.0656 5.6452 0.7718
19.4327 -40.2725 3.9121 0.8356
19.2302 -29.9872 3.1166 0.8667
20.7497 -25.0966 2.8490 0.8774
20.8435 -19.7823 2.5141 0.8910
24.5948 -18.2598 2.6800 0.8843
54.9264 -31.3025 5.5310 0.7758
58.5826 -24.5851 5.5583 0.7748
64.4483 -18.3022 5.8614 0.7641
33.0614 6.9047 2.9549 0.8732
25.4776 8.6281 2.3533 0.8976
21.4115 10.2685 2.0775 0.9091
21.7378 13.8666 2.2558 0.9016
20.2409 16.6536 2.2932 0.9001
19.3470 20.2873 2.4526 0.8935
20.2999 27.2062 2.9698 0.8726
33.2110 78.6082 7.4659 0.7099
22.5357 78.6379 7.1569 0.7200
12.5698 78.6656 6.9697 0.7262
3.1465 83.1920 7.2836 0.7159
-7.8323 94.3273 8.2810 0.6838
-16.6320 80.6021 7.2003 0.7186
-25.3437 75.4312 6.9619 0.7265
-16.2401 34.0724 3.3022 0.8594
-15.5414 24.4923 2.5378 0.8901
-16.1045 19.6695 2.2241 0.9030
-15.9598 15.2934 1.9339 0.9151
-16.1206 12.0886 1.7629 0.9223
-16.1284 9.2942 1.6286 0.9280
-18.4755 7.8579 1.7565 0.9225
-27.4504 7.9378 2.5000 0.8916
-48.2886 -22.8743 4.6747 0.8069
-36.4290 -22.9932 3.7689 0.8412
-36.4476 -29.6961 4.1132 0.8280
-23.6126 -24.5239 2.9784 0.8722
-20.6500 -27.4003 3.0018 0.8713
-19.6884 -33.9772 3.4356 0.8541
-19.5226 -45.5980 4.3396 0.8194
-19.6171 -67.2348 6.1275 0.7549
-2.7197 -63.8139 5.5881 0.7738
1.9403 -24.8092 2.1772 0.9049
21.0676 -63.7133 5.8710 0.7638
19.6517 -41.7442 4.0366 0.8309
19.2284 -30.6265 3.1638 0.8648
20.1440 -24.8451 2.7984 0.8795
21.3684 -20.6734 2.6012 0.8875
24.4579 -18.5244 2.6843 0.8841
59.7828 -34.8333 6.0534 0.7574
57.4919 -24.7783 5.4772 0.7777
64.1230 -18.8759 5.8481 0.7646
34.5244 6.8656 3.0796 0.8682
26.3542 8.6442 2.4266 0.8946
21.3430 9.9852 2.0615 0.9097
21.7135 13.5601 2.2397 0.9023
20.2400 16.3300 2.2753 0.9008
19.3459 19.9007 2.4282 0.8945
20.2984 26.6671 2.9321 0.8741
34.1015 78.6057 7.4964 0.7089
23.2652 78.3408 7.1498 0.7203
13.2941 78.3686 6.9543 0.7268
3.9050 82.3437 7.2122 0.7182
-6.8231 92.9690 8.1556 0.6878
-24.8153 76.2718 7.0174 0.7247
-16.0650 34.5538 3.3338 0.8581
-15.9793 25.7243 2.6494 0.8855
-16.1034 20.0573 2.2504 0.9019
-15.9590 15.5887 1.9518 0.9143
-16.1199 12.3313 1.7756 0.9217
-16.1278 9.5009 1.6376 0.9276
-17.9916 7.8565 1.7176 0.9242
-26.3017 7.8796 2.4021 0.8956
-46.0755 7.9296 4.0903 0.8288
-50.3525 -23.2635 4.8527 0.8003
-37.0723 -22.9055 3.8126 0.8395
-29.7975 -23.8065 3.3368 0.8580
-23.6370 -24.0827 2.9523 0.8733
-19.3413 -25.1586 2.7764 0.8804
-19.9366 -33.6578 3.4225 0.8546
-19.7641 -44.9657 4.2972 0.8210
-19.1822 -63.4756 5.8014 0.7662
-3.3591 -64.3152 5.6345 0.7721
2.7382 -39.9308 3.5017 0.8515
21.0467 -65.7585 6.0406 0.7579
19.4270 -42.3145 4.0736 0.8295
19.3073 -31.4168 3.2262 0.8624
19.7516 -24.8442 2.7768 0.8803
25.4912 -25.1396 3.1323 0.8661
24.4958 -18.9253 2.7082 0.8831
36.1804 -21.5483 3.6843 0.8444
56.3151 -24.9137 5.3875 0.7809
64.4041 -19.6313 5.8906 0.7631
36.3160 6.8607 3.2334 0.8621
27.2250 8.6418 2.4990 0.8916
21.2761 9.7064 2.0460 0.9104
21.6899 13.2580 2.2241 0.9030
20.2391 16.0115 2.2578 0.9016
19.3449 19.5217 2.4045 0.8955
20.2970 26.1414 2.8955 0.8756
34.9992 78.6032 7.5278 0.7079
24.1748 78.6333 7.1973 0.7187
14.1205 78.6613 6.9920 0.7255
2.2749 39.8885 3.4955 0.8518
-5.7271 89.8242 7.8746 0.6967
-19.5738 62.1807 5.7033 0.7697
-16.0607 35.4291 3.4033 0.8554
-15.6429 25.7297 2.6344 0.8861
-16.1023 20.4544 2.2775 0.9008
-15.9582 15.8896 1.9702 0.9135
-16.1192 12.5775 1.7888 0.9212
-16.1272 9.7100 1.6469 0.9272
-17.5285 7.8553 1.6805 0.9258
-25.4052 7.8771 2.3271 0.8987
-43.5343 7.9225 3.8713 0.8372
-51.6964 -23.2859 4.9605 0.7964
-48.6644 -29.4271 4.9755 0.7958
-29.9992 -23.4999 3.3340 0.8581
-23.6382 -23.6267 2.9240 0.8744
-19.3500 -24.6769 2.7435 0.8817
-20.8932 -34.5139 3.5297 0.8504
-20.1162 -44.6016 4.2807 0.8216
-19.6044 -62.6967 5.7471 0.7682
-10.6858 -57.9296 5.1537 0.7894
2.3501 -39.8639 3.4937 0.8519
21.0556 -68.0250 6.2300 0.7513
19.2237 -42.9524 4.1170 0.8278
19.3054 -32.0996 3.2771 0.8604
19.3653 -24.8434 2.7558 0.8812
21.8198 -21.9352 2.7069 0.8832
22.5794 -17.7930 2.5151 0.8910
31.6122 -19.2403 3.2377 0.8619
56.1456 -25.4848 5.3944 0.7807
65.6129 -20.6892 6.0190 0.7586
38.4885 6.8898 3.4208 0.8547
28.2568 8.6722 2.5860 0.8881
21.2106 9.4320 2.0309 0.9110
21.6201 12.9324 2.2041 0.9038
20.2762 15.7273 2.2450 0.9021
19.3438 19.1499 2.3814 0.8965
20.2606 25.5845 2.8552 0.8772
35.8711 78.5267 7.5531 0.7071
25.0722 78.8539 7.2392 0.7173
14.9418 78.8821 7.0240 0.7244
5.2902 79.3644 6.9586 0.7266
-4.8324 89.2523 7.8200 0.6984
-16.6577 94.3576 8.3829 0.6806
-25.9564 85.3035 7.8009 0.6991
-16.2327 36.7408 3.5142 0.8511
-15.8252 26.6005 2.7079 0.8831
-16.1012 20.8614 2.3055 0.8996
-15.9573 16.1963 1.9892 0.9127
-16.0462 12.7698 1.7942 0.9210
-16.1266 9.9215 1.6565 0.9268
-17.0851 7.8540 1.6451 0.9273
-24.5631 7.8748 2.2567 0.9016
-41.0774 7.8830 3.6594 0.8454
-40.8820 2.8234 3.5852 0.8483
-52.8593 -23.2030 5.0505 0.7931
-50.3046 -29.7641 5.1137 0.7908
-30.3924 -23.3415 3.3527 0.8574
-23.6092 -23.1497 2.8928 0.8757
-19.1531 -23.9492 2.6829 0.8841
-19.9576 -32.2662 3.3193 0.8587
-19.2019 -41.5084 4.0013 0.8322
-19.5982 -60.6299 5.5747 0.7743
1.9939 -40.4134 3.5400 0.8500
21.0491 -70.3848 6.4273 0.7445
19.4783 -44.6649 4.2631 0.8223
19.2521 -32.7168 3.3212 0.8586
18.9848 -24.8426 2.7354 0.8820
24.5297 -25.1369 3.0728 0.8685
22.3285 -17.9448 2.5062 0.8913
31.5973 -19.6487 3.2553 0.8612
55.3730 -25.7772 5.3437 0.7825
64.9619 -21.1705 5.9776 0.7601
78.5032 -15.4554 7.0000 0.7252
43.0371 2.0200 3.7694 0.8411
40.6991 6.8836 3.6113 0.8473
28.3387 8.4009 2.5860 0.8881
22.1566 9.5994 2.1126 0.9076
21.5426 12.6073 2.1838 0.9046
20.6812 15.7262 2.2731 0.9009
19.3428 18.7854 2.3590 0.8974
20.2942 25.1284 2.8259 0.8784
20.3146 32.4941 3.3527 0.8574
25.8328 78.6287 7.2409 0.7173
15.6818 78.6569 7.0170 0.7247
5.9989 78.6339 6.8996 0.7286
-3.9963 89.7319 7.8583 0.6972
-15.5475 93.2839 8.2739 0.6840
-25.5187 86.8448 7.9192 0.6953
-16.0555 37.3028 3.5530 0.8495
-15.7479 27.0576 2.7390 0.8819
-16.1001 21.2784 2.3345 0.8984
-15.9877 16.5412 2.0127 0.9118
-16.1179 13.0811 1.8161 0.9200
-16.1260 10.1354 1.6664 0.9264
-16.6600 7.8528 1.6114 0.9287
-23.7698 7.8726 2.1907 0.9043
-39.1878 7.9104 3.4976 0.8517
-53.5559 -22.8989 5.0959 0.7915
-40.9776 -23.7183 4.1423 0.8269
-30.7203 -23.1287 3.3642 0.8569
-24.0459 -23.1299 2.9190 0.8746
-19.1518 -23.4826 2.6511 0.8854
-25.7537 -40.7586 4.2181 0.8240
-19.1991 -40.4792 3.9196 0.8354
-19.1161 -57.2577 5.2812 0.7848
-19.6182 -96.0015 8.5726 0.6747
1.6551 -41.6553 3.6472 0.8459
20.8132 -72.1072 6.5661 0.7398
15.1510 -35.6712 3.3907 0.8559
19.4328 -33.7598 3.4080 0.8552
18.9641 -25.3149 2.7673 0.8807
22.6088 -23.6171 2.8604 0.8770
21.9797 -18.0138 2.4863 0.8922
28.8675 -18.3373 2.9920 0.8717
55.2839 -26.3832 5.3593 0.7820
65.5363 -22.0546 6.0496 0.7576
77.1315 -15.9550 6.8910 0.7289
65.1055 10.3706 5.7678 0.7674
28.4179 8.1289 2.5860 0.8881
22.1559 9.3479 2.1039 0.9080
21.5237 12.3208 2.1698 0.9052
21.0962 15.7250 2.3020 0.8997
19.3418 18.4275 2.3372 0.8983
20.2928 24.6396 2.7927 0.8797
20.3127 31.8088 3.3019 0.8594
26.7455 78.8493 7.2845 0.7158
16.4666 78.6547 7.0306 0.7242
6.7615 78.6817 6.9091 0.7283
-3.0978 88.6783 7.7631 0.7003
-14.4309 92.0136 8.1486 0.6880
-24.7363 87.2653 7.9355 0.6948
-32.2919 77.0517 7.3092 0.7150
-15.5712 27.3537 2.7537 0.8813
-16.0989 21.7060 2.3643 0.8972
-15.9868 16.8608 2.0328 0.9109
-16.1171 13.3387 1.8303 0.9194
-16.1254 10.3519 1.6765 0.9259
-16.2518 7.8517 1.5791 0.9301
-23.0220 7.8705 2.1286 0.9069
-37.5775 7.9609 3.3606 0.8571
-54.8044 -22.8141 5.1936 0.7879
-41.3660 -23.4168 4.1587 0.8262
-31.0614 -22.9222 3.3774 0.8564
-24.5208 -23.1385 2.9496 0.8734
-19.1505 -23.0270 2.6203 0.8867
-19.1691 -29.7031 3.0928 0.8677
-19.4799 -40.0750 3.8984 0.8362
-19.5867 -56.8478 5.2605 0.7855
-19.6117 -91.4888 8.1861 0.6868
1.2682 -42.0790 3.6831 0.8445
21.0328 -75.5792 6.8636 0.7298
19.4141 -46.9537 4.4452 0.8155
19.5020 -34.6441 3.4782 0.8525
18.9624 -25.8248 2.8030 0.8793
23.5437 -25.0702 3.0089 0.8710
21.8721 -18.2789 2.4938 0.8919
31.9675 -20.7390 3.3338 0.8581
55.0247 -26.9099 5.3589 0.7820
67.1014 -23.3002 6.2145 0.7519
77.5920 -16.8275 6.9462 0.7270
65.2019 9.7462 5.7678 0.7674
28.4945 7.8562 2.5860 0.8881
22.1552 9.0983 2.0954 0.9083
21.5305 12.0521 2.1587 0.9057
21.5222 15.7238 2.3319 0.8985
19.3409 18.0760 2.3161 0.8992
20.2565 24.1207 2.7557 0.8812
20.3109 31.1439 3.2530 0.8613
27.5124 78.6240 7.2877 0.7157
17.2718 78.7297 7.0518 0.7235
7.5432 78.9027 6.9346 0.7274
-2.2635 89.3489 7.8195 0.6985
-13.2120 89.8644 7.9466 0.6944
-23.2732 85.2103 7.7280 0.7014
-32.1039 78.7115 7.4371 0.7108
-16.2536 29.2002 2.9238 0.8744
-16.0976 22.1450 2.3952 0.8959
-16.1060 17.3162 2.0690 0.9094
-11.0283 9.3068 1.2625 0.9437
-16.1248 10.5713 1.6869 0.9255
-16.1320 7.9855 1.5748 0.9303
-21.9706 7.7471 2.0382 0.9107
-35.6280 7.9055 3.1929 0.8637
-57.2512 -23.1911 5.4042 0.7803
-41.8762 -23.1783 4.1875 0.8252
-31.6907 -22.9204 3.4217 0.8547
-24.7785 -22.9364 2.9540 0.8732
-19.4629 -22.9512 2.6327 0.8862
-19.1674 -29.0846 3.0474 0.8695
-19.7109 -39.5805 3.8685 0.8373
-19.6276 -55.2410 5.1290 0.7903
-19.6093 -87.3798 7.8349 0.6980
18.9077 -47.7748 2.6927 0.8140
19.4451 -35.8067 2.1354 0.8494
19.6025 -27.5659 1.7727 0.8733
23.1035 -25.3641 1.7981 0.8716
23.5132 -20.2659 1.6268 0.8831
41.6479 -27.9286 2.6280 0.8180
54.6471 -27.7635 3.2123 0.7823
65.6081 -23.9058 3.6595 0.7560
77.0862 -17.9497 4.1480 0.7283
52.7761 7.0697 2.7906 0.8079
24.9535 6.4730 1.3510 0.9019
22.4237 8.8125 1.2627 0.9080
19.8646 10.7261 1.1831 0.9135
19.8738 14.0609 1.2759 0.9071
23.8637 21.6325 1.6880 0.8790
20.2545 23.3863 1.6214 0.8834
28.7919 78.4321 4.3786 0.7156
18.4650 78.4476 4.2236 0.7241
8.7313 78.6762 4.1486 0.7283
-0.9054 89.4504 4.6881 0.6989
-11.1485 84.7672 4.4807 0.7100
-20.9572 81.5937 4.4149 0.7136
-32.2334 82.6001 4.6468 0.7011
-12.6887 23.6346 1.4059 0.8981
-16.0281 22.7697 1.4593 0.8945
-16.1096 17.8570 1.2604 0.9082
-16.2193 14.1154 1.1268 0.9175
-16.1238 10.9249 1.0207 0.9250
-16.1312 8.2929 0.9506 0.9299
-21.0511 7.7849 1.1763 0.9140
-33.2009 7.8988 1.7885 0.8722
-93.1377 -0.7196 4.8813 0.6886
-59.5701 -23.0820 3.3481 0.7742
-42.8811 -22.8893 2.5474 0.8231
-33.1048 -23.1847 2.1181 0.8505
-25.5447 -22.9343 1.7991 0.8715
-20.0694 -22.9495 1.5978 0.8850
-19.4131 -28.5042 1.8074 0.8710
-20.2928 -39.2414 2.3153 0.8378
-19.2399 -51.6456 2.8884 0.8019
-19.3099 -80.3096 4.3287 0.7183
0.2233 -41.8959 2.1957 0.8455
21.0127 -83.4677 4.5108 0.7084
18.8957 -49.1150 2.7579 0.8099
19.4428 -36.6355 2.1736 0.8469
19.4670 -27.9386 1.7846 0.8725
22.6614 -25.3628 1.7825 0.8726
28.8824 -25.3801 2.0150 0.8573
54.1996 -37.1037 3.4423 0.7687
55.3798 -28.8069 3.2715 0.7788
64.7768 -24.3087 3.6260 0.7580
67.3351 -16.3610 3.6316 0.7576
56.7562 7.0498 2.9973 0.7953
26.3874 6.5757 1.4252 0.8968
23.0662 8.8107 1.2940 0.9058
19.8639 10.4811 1.1770 0.9140
19.8730 13.7764 1.2673 0.9077
23.8639 21.2196 1.6736 0.8799
20.2532 22.9369 1.6036 0.8846
29.7989 78.8320 4.4167 0.7135
19.3093 78.6468 4.2441 0.7230
9.5175 78.8584 4.1628 0.7275
-0.0480 89.3636 4.6833 0.6991
-10.2643 84.2863 4.4499 0.7117
-19.6451 79.6457 4.2990 0.7199
-32.0120 84.4128 4.7313 0.6966
-12.6323 24.0807 1.4251 0.8968
-10.3521 15.0100 0.9557 0.9296
-16.1086 18.2037 1.2739 0.9072
-16.2185 14.3902 1.1363 0.9168
-16.2985 11.2726 1.0386 0.9237
-16.1306 8.4891 0.9553 0.9296
-20.6541 7.8639 1.1582 0.9153
-31.8268 7.8950 1.7185 0.8769
-60.6648 -22.8398 3.3972 0.7713
-44.4022 -23.1572 2.6245 0.8183
-35.4342 -24.3133 2.2521 0.8419
-26.0448 -22.9362 1.8188 0.8702
-20.7090 -23.2278 1.6309 0.8828
-19.4405 -27.9645 1.7849 0.8725
-19.4599 -36.7628 2.1799 0.8465
-19.4110 -50.6166 2.8411 0.8048
-19.8577 -79.2389 4.2811 0.7209
-0.3546 -83.3271 4.3670 0.7162
19.1574 -51.2560 2.8677 0.8032
19.4018 -37.4199 2.2090 0.8446
19.4654 -28.5152 1.8094 0.8708
22.2941 -25.4384 1.7727 0.8733
28.3284 -25.3786 1.9933 0.8587
54.8765 -38.3447 3.5085 0.7648
54.8970 -29.2276 3.2594 0.7795
64.7749 -25.0188 3.6391 0.7572
64.5401 -16.3386 3.4891 0.7659
59.1408 6.7710 3.1197 0.7879
29.1191 6.9607 1.5691 0.8870
23.7414 8.8088 1.3271 0.9035
19.8632 10.2385 1.1711 0.9144
19.8723 13.4958 1.2589 0.9083
24.0269 20.9555 1.6708 0.8801
20.3480 22.6039 1.5939 0.8853
21.2694 30.2847 1.9395 0.8622
30.5744 78.5974 4.4198 0.7133
20.1592 78.8376 4.2646 0.7218
10.2609 78.6720 4.1579 0.7278
0.7900 87.3000 4.5754 0.7049
-9.4982 84.7572 4.4697 0.7106
-18.8260 79.5983 4.2868 0.7206
-29.4359 79.9220 4.4636 0.7110
-12.6308 24.6491 1.4515 0.8950
-15.5831 23.0645 1.4588 0.8945
-16.1076 18.5580 1.2878 0.9063
-16.0951 14.5588 1.1374 0.9167
-16.2978 11.5046 1.0455 0.9232
-16.3054 8.7817 0.9706 0.9285
-20.3393 7.9681 1.1448 0.9162
-30.1561 7.7881 1.6323 0.8827
-20.8773 2.7738 1.1037 0.9191
-46.7909 -23.8354 2.7520 0.8103
-35.4570 -23.8323 2.2390 0.8427
-26.8726 -23.2117 1.8610 0.8674
-21.1039 -23.2189 1.6444 0.8819
-19.5145 -27.5047 1.7674 0.8736
-19.1850 -35.4181 2.1111 0.8510
-19.9548 -50.5791 2.8496 0.8043
-19.4260 -74.4814 4.0341 0.7347
-1.1547 -83.4277 4.3727 0.7159
19.2039 -52.9215 2.9505 0.7981
19.3482 -38.2084 2.2445 0.8424
19.4637 -29.1081 1.8351 0.8691
21.9753 -25.5648 1.7667 0.8737
27.7861 -25.3771 1.9721 0.8601
59.2918 -42.2814 3.8165 0.7470
55.3281 -30.1412 3.3020 0.7770
64.7729 -25.7342 3.6527 0.7564
65.4716 -17.2438 3.5482 0.7625
79.9421 8.3771 4.2125 0.7247
30.0218 6.8730 1.6141 0.8839
24.4522 8.8068 1.3621 0.9011
19.8626 9.9984 1.1654 0.9148
19.8715 13.2188 1.2508 0.9088
20.2428 17.3163 1.3961 0.8988
21.0080 22.8918 1.6283 0.8830
21.1867 29.5605 1.9060 0.8644
24.1090 44.0037 2.6296 0.8179
31.4513 78.6131 4.4374 0.7124
1.9482 7.3256 0.3973 0.9701
11.0285 78.6699 4.1632 0.7275
1.6115 86.4708 4.5325 0.7072
-8.7524 85.4987 4.5044 0.7087
-18.0707 79.8127 4.2887 0.7205
-27.1355 75.9119 4.2249 0.7240
-12.6291 25.2390 1.4791 0.8931
-15.5818 23.5459 1.4797 0.8931
-16.1614 18.9846 1.3066 0.9050
-16.0550 14.8047 1.1445 0.9162
-16.2972 11.7398 1.0526 0.9227
-16.3048 8.9840 0.9756 0.9281
-19.8605 8.0010 1.1221 0.9178
-29.1309 7.8219 1.5808 0.8862
-90.0086 -8.9962 4.7406 0.6961
-46.7632 -23.2594 2.7372 0.8112
-35.4331 -23.3263 2.2232 0.8437
-27.3854 -23.2001 1.8810 0.8661
-28.3390 -30.5848 2.1852 0.8462
-19.9277 -27.5242 1.7809 0.8727
-19.1828 -34.6177 2.0742 0.8534
-19.4953 -48.0601 2.7181 0.8124
-19.9502 -73.5950 3.9961 0.7368
2.4051 -24.6610 1.2986 0.9055
19.1742 -54.4620 3.0260 0.7935
19.3169 -39.0714 2.2842 0.8398
15.2511 -23.2880 1.4589 0.8945
21.5516 -25.5636 1.7523 0.8747
27.2552 -25.3756 1.9516 0.8614
56.5533 -41.1518 3.6655 0.7557
56.1785 -31.3064 3.3705 0.7729
64.7709 -26.4550 3.6667 0.7556
64.7738 -17.7255 3.5195 0.7642
33.7488 7.3865 1.8106 0.8708
25.2016 8.8047 1.3990 0.8986
19.8619 9.7606 1.1598 0.9152
19.8707 12.9452 1.2429 0.9094
20.2418 16.9822 1.3847 0.8996
21.4146 22.8907 1.6428 0.8820
21.1199 28.8786 1.8750 0.8665
32.3737 78.7228 4.4609 0.7111
2.0168 7.3012 0.3970 0.9701
11.8271 78.8607 4.1791 0.7266
2.4017 85.0933 4.4613 0.7111
-9.0865 98.0283 5.1595 0.6741
-17.3473 80.1784 4.2992 0.7199
-26.0172 75.0449 4.1626 0.7275
-12.6274 25.8519 1.5078 0.8912
-15.3215 23.6419 1.4765 0.8933
-16.1604 19.3561 1.3215 0.9039
-16.1121 15.1457 1.1589 0.9152
-16.2965 11.9783 1.0600 0.9222
-16.3042 9.1885 0.9808 0.9278
-18.9819 7.8593 1.0767 0.9210
-28.2812 7.8851 1.5387 0.8891
-47.5295 -23.0750 2.7689 0.8093
-35.9684 -23.1877 2.2428 0.8425
-35.7938 -29.7388 2.4388 0.8299
-28.8873 -30.5833 2.2048 0.8449
-20.3265 -27.5160 1.7928 0.8719
-19.4665 -34.3489 2.0691 0.8537
-19.2147 -46.0948 2.6172 0.8187
-19.3522 -68.7725 3.7441 0.7511
2.0149 -22.9320 1.2064 0.9119
20.8731 -61.1529 3.3864 0.7720
19.3143 -40.0270 2.3292 0.8369
19.4603 -30.3460 1.8893 0.8655
21.1348 -25.5624 1.7383 0.8756
26.8737 -25.5055 1.9417 0.8621
34.2053 -25.3949 2.2327 0.8431
64.7421 -36.8964 3.9053 0.7419
58.6996 -24.6342 3.3362 0.7749
63.5604 -18.0501 3.4628 0.7675
33.8181 7.0627 1.8106 0.8708
25.9926 8.8026 1.4382 0.8959
19.8612 9.5250 1.1544 0.9156
19.8700 12.6751 1.2352 0.9099
20.2409 16.6536 1.3737 0.9003
21.8287 22.8896 1.6576 0.8810
20.9738 28.1092 1.8380 0.8689
33.2110 78.6081 4.4722 0.7105
22.5356 78.6378 4.2871 0.7206
12.5698 78.6655 4.1750 0.7268
3.1465 83.1920 4.3630 0.7164
-8.0361 96.7821 5.0896 0.6777
-16.6407 80.6442 4.3154 0.7190
-25.3437 75.4312 4.1703 0.7271
-12.6256 26.4891 1.5379 0.8891
-15.0012 23.6410 1.4674 0.8939
-16.1045 19.6695 1.3323 0.9032
-16.1113 15.4385 1.1694 0.9145
-16.1206 12.0886 1.0560 0.9225
-16.3037 9.3952 0.9862 0.9274
-18.4755 7.8579 1.0522 0.9227
-27.4504 7.9378 1.4976 0.8919
-69.2121 -14.1087 3.7018 0.7536
-48.2886 -22.8743 2.8003 0.8073
-36.4290 -22.9932 2.2576 0.8415
-29.7306 -24.2234 2.0098 0.8576
-29.1987 -30.3255 2.2062 0.8448
-26.0003 -34.4996 2.2640 0.8411
-19.4485 -33.5632 2.0329 0.8561
-19.4945 -45.5325 2.5958 0.8200
-19.8396 -67.9975 3.7122 0.7530
1.9482 -24.9104 1.3095 0.9048
21.0676 -63.7133 3.5169 0.7643
19.3115 -41.0215 2.3762 0.8339
19.4307 -30.9486 1.9151 0.8638
20.7247 -25.5613 1.7246 0.8765
26.3614 -25.5041 1.9223 0.8634
33.5264 -25.3930 2.2041 0.8450
56.5938 -32.9751 3.4327 0.7692
58.4235 -25.1798 3.3341 0.7751
63.8209 -18.7870 3.4866 0.7661
33.8842 6.7383 1.8106 0.8708
26.8297 8.8002 1.4798 0.8931
19.8606 9.2916 1.1491 0.9159
19.8692 12.4084 1.2277 0.9104
20.2400 16.3300 1.3629 0.9011
22.2504 22.8884 1.6729 0.8800
20.9805 27.5632 1.8154 0.8704
34.0937 78.5876 4.4895 0.7095
18.9004 63.6430 3.4794 0.7665
13.3099 78.4619 4.1708 0.7270
3.9050 82.3437 4.3203 0.7188
-7.0317 95.8101 5.0347 0.6806
-24.8083 76.2503 4.2023 0.7253
-15.9336 34.2711 1.9807 0.8595
-14.6846 23.6402 1.4585 0.8945
-16.1035 20.0573 1.3480 0.9021
-16.1105 15.7366 1.1803 0.9137
-16.1199 12.3313 1.0636 0.9219
-16.2266 9.5591 0.9870 0.9273
-17.9916 7.8565 1.0289 0.9244
-26.3017 7.8796 1.4389 0.8959
-46.0755 7.9296 2.4502 0.8292
-91.5954 -17.7590 4.8895 0.6882
-49.9138 -23.0608 2.8816 0.8023
-37.0723 -22.9055 2.2838 0.8398
-29.7469 -23.7660 1.9954 0.8586
-23.7178 -24.1651 1.7745 0.8732
-26.0095 -33.8323 2.2365 0.8429
-19.8631 -33.5336 2.0426 0.8555
-19.7546 -44.9441 2.5729 0.8215
-19.2638 -63.7456 3.4900 0.7659
4.2861 -62.5031 3.2833 0.7781
21.0449 -65.7530 3.6182 0.7584
19.3086 -42.0566 2.4253 0.8308
19.4255 -31.6091 1.9444 0.8619
20.3606 -25.6103 1.7147 0.8772
25.8594 -25.5027 1.9034 0.8646
32.8648 -25.3912 2.1765 0.8467
64.7374 -38.5562 3.9489 0.7395
59.1000 -26.1457 3.3869 0.7719
64.8473 -19.7663 3.5529 0.7622
33.9472 6.4132 1.8106 0.8708
27.7163 8.7978 1.5240 0.8901
22.1580 10.1088 1.2764 0.9071
19.8685 12.1447 1.2204 0.9109
20.2391 16.0115 1.3525 0.9018
22.6798 22.8872 1.6886 0.8789
20.8830 26.8962 1.7846 0.8725
38.8868 64.9381 3.9668 0.7385
34.9912 78.5852 4.5083 0.7085
24.1748 78.6333 4.3113 0.7193
11.7656 65.5430 3.4899 0.7659
2.2747 39.8837 2.0936 0.8521
-6.0076 94.2238 4.9481 0.6851
-19.6017 62.2695 3.4213 0.7699
-15.9098 35.0962 2.0195 0.8570
-14.3720 23.6393 1.4499 0.8951
-16.1023 20.4544 1.3643 0.9010
-16.1096 16.0404 1.1914 0.9130
-16.1192 12.5775 1.0715 0.9214
-16.1272 9.7099 0.9866 0.9274
-17.6519 7.9106 1.0137 0.9254
-25.4052 7.8771 1.3940 0.8989
-43.5343 7.9225 2.3190 0.8376
-52.4671 -23.6331 3.0158 0.7941
-38.3340 -23.1804 2.3477 0.8357
-29.7213 -23.2823 1.9786 0.8597
-23.7273 -23.7158 1.7581 0.8743
-19.4301 -24.7790 1.6502 0.8815
-20.2987 -33.5317 2.0542 0.8547
-20.2742 -44.9518 2.5843 0.8208
-19.6491 -62.8396 3.4505 0.7682
-10.6849 -57.9246 3.0868 0.7898
5.1723 -87.7376 4.6061 0.7033
21.0693 -68.0694 3.7343 0.7517
19.2653 -43.0454 2.4715 0.8279
19.4202 -32.2904 1.9747 0.8599
19.8244 -25.4324 1.6899 0.8788
25.3671 -25.5013 1.8851 0.8658
32.2193 -25.3894 2.1498 0.8485
57.8212 -35.1921 3.5474 0.7625
57.6348 -26.1608 3.3171 0.7761
66.2271 -20.8829 3.6393 0.7572
34.0071 6.0876 1.8106 0.8708
28.6576 8.7952 1.5710 0.8869
22.1573 9.8529 1.2708 0.9074
19.8678 11.8843 1.2133 0.9114
20.2762 15.7273 1.3448 0.9023
23.1177 22.8860 1.7048 0.8778
20.8004 26.2662 1.7559 0.8744
38.8714 63.5235 3.9030 0.7421
35.8822 78.5508 4.5258 0.7076
25.0627 78.8239 4.3348 0.7180
14.9361 78.8521 4.2059 0.7251
5.2902 79.3645 4.1685 0.7272
-4.9269 90.9980 4.7760 0.6942
-16.6612 94.3770 5.0226 0.6812
-19.6038 64.4264 3.5293 0.7636
-15.9073 36.0043 2.0629 0.8541
-14.0630 23.6384 1.4415 0.8957
-16.1012 20.8614 1.3811 0.8998
-16.1636 16.4056 1.2070 0.9119
-16.0462 12.7698 1.0748 0.9211
-16.1266 9.9215 0.9923 0.9270
-17.3729 7.9863 1.0021 0.9263
-25.1156 8.0520 1.3822 0.8997
-41.0774 7.8830 2.1921 0.8457
-40.8755 2.8229 2.1473 0.8486
-69.2077 -12.0467 3.6816 0.7547
-52.4627 -23.0289 3.0027 0.7949
-41.1407 -24.3420 2.5052 0.8257
-30.2108 -23.2020 1.9963 0.8585
-23.7024 -23.2411 1.7397 0.8755
-19.1531 -23.9492 1.6071 0.8844
-26.0370 -42.0949 2.5940 0.8202
-19.2019 -41.5084 2.3968 0.8326
-20.0936 -62.1624 3.4238 0.7698
2.1544 -43.6684 2.2913 0.8394
21.0491 -70.3848 3.8501 0.7451
19.1929 -44.0105 2.5163 0.8250
19.4528 -33.0577 2.0102 0.8576
19.5472 -25.5785 1.6871 0.8790
24.8840 -25.5000 1.8673 0.8670
31.5896 -25.3876 2.1239 0.8502
33.1227 -20.5972 2.0441 0.8554
55.9946 -26.0665 3.2369 0.7808
73.4206 -23.9271 4.0470 0.7340
43.0327 2.0198 2.2577 0.8415
34.9176 5.9058 1.8559 0.8678
29.1238 8.6336 1.5920 0.8854
22.1566 9.5994 1.2655 0.9078
19.8671 11.6268 1.2064 0.9119
20.6812 15.7262 1.3616 0.9012
23.5639 22.8848 1.7215 0.8767
20.7357 25.6750 1.7296 0.8762
25.8328 78.6287 4.3374 0.7178
15.6818 78.6569 4.2034 0.7252
5.9989 78.6338 4.1330 0.7291
-3.9963 89.7319 4.7073 0.6978
-10.7117 64.2698 3.4147 0.7703
-16.0555 37.3028 2.1283 0.8499
-13.7574 23.6376 1.4333 0.8962
-16.2750 21.5097 1.4136 0.8976
-16.1627 16.7223 1.2188 0.9111
-16.1178 13.0811 1.0879 0.9202
-16.1260 10.1354 0.9982 0.9265
-16.6600 7.8528 0.9652 0.9289
-23.7698 7.8726 1.3123 0.9046
-38.4251 7.7565 2.0544 0.8547
-69.2331 -11.3687 3.6769 0.7550
-53.5559 -22.8989 3.0525 0.7919
-41.1651 -23.8268 2.4927 0.8265
-30.7203 -23.1287 2.0153 0.8573
-24.1330 -23.2137 1.7549 0.8745
-19.1518 -23.4827 1.5881 0.8857
-19.4479 -30.7788 1.9081 0.8643
-19.1991 -40.4792 2.3479 0.8357
-19.2468 -57.6493 3.1852 0.7839
-19.6525 -96.1691 5.1442 0.6749
2.5588 -64.3987 3.3777 0.7725
21.0849 -73.0487 3.9846 0.7375
15.1496 -35.6678 2.0309 0.8562
19.4507 -33.7910 2.0433 0.8554
19.7079 -26.3079 1.7227 0.8766
24.2843 -25.3673 1.8404 0.8688
30.9748 -25.3859 2.0989 0.8518
28.8650 -18.3356 1.7921 0.8720
55.5660 -26.5178 3.2267 0.7814
71.0821 -23.9209 3.9305 0.7405
77.7923 -16.0917 4.1632 0.7275
52.5105 8.3643 2.7867 0.8082
22.6515 6.4794 1.2347 0.9099
22.1559 9.3480 1.2603 0.9082
19.8664 11.3721 1.1997 0.9124
19.8759 14.8154 1.2992 0.9055
23.7156 22.5945 1.7167 0.8770
20.6859 25.1169 1.7053 0.8778
26.7353 78.8193 4.3619 0.7165
16.4666 78.6547 4.2115 0.7248
6.7615 78.6817 4.1387 0.7288
-3.0970 88.6547 4.6490 0.7009
-14.4881 92.3784 4.9005 0.6876
-25.2496 89.0763 4.8522 0.6901
-32.3063 77.0860 4.3803 0.7155
-13.4553 23.6367 1.4254 0.8968
-16.2738 21.9419 1.4317 0.8964
-16.1618 17.0454 1.2310 0.9102
-16.1171 13.3387 1.0964 0.9196
-16.1254 10.3519 1.0043 0.9261
-16.2518 7.8517 0.9459 0.9303
-23.0220 7.8705 1.2751 0.9071
-36.7385 7.7832 1.9681 0.8603
-69.0564 -10.6610 3.6620 0.7559
-54.9048 -22.8559 3.1168 0.7880
-41.1406 -23.2892 2.4776 0.8275
-31.0614 -22.9222 2.0231 0.8567
-24.6092 -23.2219 1.7733 0.8733
-19.1505 -23.0270 1.5696 0.8870
-19.1691 -29.7031 1.8526 0.8680
-19.4837 -40.0827 2.3357 0.8365
-19.3758 -56.2356 3.1172 0.7880
-19.6372 -91.6080 4.9101 0.6871
2.4335 -80.7430 4.2335 0.7236
21.0167 -75.5213 4.1083 0.7305
19.0392 -46.0469 2.6114 0.8191
19.4486 -34.5493 2.0778 0.8532
19.6663 -26.7834 1.7414 0.8754
23.8215 -25.3660 1.8237 0.8699
30.3741 -25.3843 2.0745 0.8534
56.1754 -36.4441 3.5093 0.7647
54.9243 -26.8608 3.2042 0.7828
68.9428 -23.9396 3.8248 0.7465
76.6775 -16.6292 4.1119 0.7303
52.5091 7.8489 2.7825 0.8084
23.4925 6.4771 1.2771 0.9070
22.1552 9.0983 1.2552 0.9085
19.8657 11.1202 1.1931 0.9128
19.8751 14.5205 1.2900 0.9061
23.8656 22.3049 1.7120 0.8774
20.2565 24.1207 1.6507 0.8815
27.5062 78.6061 4.3645 0.7164
17.2795 78.7648 4.2261 0.7240
7.5395 78.8639 4.1519 0.7281
-2.2635 89.3489 4.6841 0.6991
-13.2692 90.2536 4.7808 0.6939
-23.9566 87.7126 4.7652 0.6948
-32.1038 78.7113 4.4550 0.7114
-13.1564 23.6359 1.4177 0.8973
-16.0977 22.1450 1.4348 0.8961
-16.1060 17.3162 1.2394 0.9096
-11.0282 9.3067 0.7563 0.9438
-16.1248 10.5713 1.0105 0.9257
-16.1320 7.9855 0.9434 0.9304
-22.4721 7.9240 1.2488 0.9090
-35.6280 7.9055 1.9126 0.8640
-58.6501 -23.7578 3.3163 0.7761
-41.8720 -23.1760 2.5081 0.8256
-31.6907 -22.9204 2.0497 0.8550
-24.7785 -22.9364 1.7695 0.8735
-19.4629 -22.9512 1.5771 0.8864
-19.1674 -29.0846 1.8255 0.8698
-19.5343 -39.2259 2.2966 0.8390
-19.9835 -56.2429 3.1281 0.7874
-19.3261 -86.1177 4.6255 0.7022
19.6566 -49.6671 0.9324 0.8076
19.6938 -36.2647 0.7203 0.8478
19.6656 -27.6548 0.5923 0.8731
23.4692 -25.7656 0.6083 0.8699
23.5294 -20.2798 0.5422 0.8831
41.6527 -27.9319 0.8754 0.8182
65.3497 -33.2009 1.2794 0.7458
65.6081 -23.9058 1.2188 0.7563
34.4179 4.6105 0.6061 0.8703
21.4987 5.5769 0.3877 0.9150
19.1825 7.5387 0.3598 0.9209
18.4712 9.9737 0.3664 0.9194
18.6828 13.2183 0.3995 0.9125
18.4830 16.7548 0.4354 0.9050
18.7005 21.5920 0.4986 0.8920
18.7105 27.7575 0.5843 0.8747
28.9524 78.8700 1.4665 0.7145
18.7741 79.7608 1.4303 0.7205
8.7591 78.9261 1.3861 0.7278
-0.9054 89.4504 1.5614 0.6992
-11.1484 84.7672 1.4924 0.7103
-20.9572 81.5937 1.4704 0.7139
-27.7750 71.1752 1.3336 0.7366
-16.0760 29.9440 0.5932 0.8729
-16.0281 22.7697 0.4860 0.8946
-16.1096 17.8570 0.4198 0.9083
-16.2193 14.1153 0.3753 0.9176
-16.1238 10.9249 0.3400 0.9250
-16.1312 8.2929 0.3166 0.9300
-21.0511 7.7849 0.3918 0.9141
-33.2009 7.8988 0.5957 0.8724
-93.2470 -0.7205 1.6277 0.6886
-59.5701 -23.0820 1.1151 0.7745
-42.8811 -22.8893 0.8485 0.8233
-33.0988 -23.1805 0.7053 0.8507
-25.5447 -22.9343 0.5992 0.8717
-20.0694 -22.9495 0.5322 0.8852
-19.4131 -28.5042 0.6020 0.8711
-20.2941 -39.2439 0.7712 0.8380
-19.2399 -51.6456 0.9619 0.8021
-19.3099 -80.3096 1.4417 0.7186
20.2152 -80.2999 1.4454 0.7180
19.6527 -51.0827 0.9554 0.8034
19.6915 -37.1040 0.7332 0.8453
19.7121 -28.2904 0.6019 0.8711
23.2759 -26.0505 0.6098 0.8696
29.0319 -25.5115 0.6746 0.8567
64.7212 -44.3065 1.3691 0.7307
64.7513 -33.6816 1.2740 0.7468
64.7772 -24.3089 1.2077 0.7582
72.8553 9.0495 1.2815 0.7455
22.0841 5.5033 0.3973 0.9130
19.7386 7.5396 0.3688 0.9189
22.1624 11.6939 0.4374 0.9046
18.6028 12.8959 0.3951 0.9134
18.1888 16.1733 0.4248 0.9072
18.4843 20.9337 0.4875 0.8943
29.5812 42.9899 0.9109 0.8116
29.8123 78.8676 1.4717 0.7137
19.3093 78.6468 1.4135 0.7233
7.7528 64.2366 1.1294 0.7719
-0.0477 88.7508 1.5491 0.7011
-10.2914 84.5087 1.4860 0.7114
-19.6330 79.5964 1.4306 0.7204
-30.7676 81.1314 1.5146 0.7067
-16.0740 30.6415 0.6040 0.8707
-10.3503 15.0073 0.3183 0.9297
-16.1086 18.2037 0.4243 0.9073
-16.2185 14.3902 0.3785 0.9169
-16.2985 11.2726 0.3459 0.9238
-16.1306 8.4891 0.3182 0.9297
-20.6541 7.8639 0.3858 0.9154
-31.8269 7.8950 0.5724 0.8771
-60.6649 -22.8398 1.1315 0.7716
-44.3924 -23.1521 0.8739 0.8185
-35.4368 -24.3151 0.7501 0.8420
-26.0448 -22.9362 0.6057 0.8704
-20.7061 -23.2246 0.5431 0.8830
-19.4368 -27.9592 0.5944 0.8726
-19.4556 -36.7547 0.7259 0.8467
-19.4963 -50.8390 0.9504 0.8043
-19.8479 -79.2001 1.4252 0.7213
15.8641 -65.6687 1.1792 0.7632
20.1924 -54.0252 1.0067 0.7939
19.6891 -37.9740 0.7466 0.8427
19.7105 -28.8742 0.6102 0.8695
23.0184 -26.2647 0.6096 0.8696
28.0511 -25.1302 0.6574 0.8601
64.8406 -45.3071 1.3807 0.7287
64.7491 -34.4729 1.2804 0.7457
64.9330 -25.0798 1.2150 0.7569
66.7426 7.6414 1.1726 0.7643
23.3317 5.5773 0.4187 0.9085
19.5771 7.2637 0.3645 0.9199
18.3857 9.4769 0.3610 0.9206
18.3930 12.4911 0.3881 0.9149
18.5253 16.1572 0.4291 0.9063
18.3761 20.4133 0.4794 0.8959
18.4214 26.2295 0.5595 0.8797
35.1827 65.7023 1.3009 0.7422
30.6638 78.8274 1.4764 0.7129
20.1098 78.6446 1.4169 0.7227
8.4492 64.7815 1.1403 0.7700
0.7899 87.2908 1.5237 0.7052
-9.5200 84.9513 1.4921 0.7104
-18.8206 79.5753 1.4273 0.7210
-30.2062 82.0135 1.5256 0.7049
-16.2467 31.7056 0.6219 0.8672
-15.5831 23.0645 0.4859 0.8946
-16.1076 18.5580 0.4289 0.9064
-16.0951 14.5588 0.3788 0.9168
-16.2978 11.5046 0.3482 0.9233
-16.3053 8.7817 0.3233 0.9286
-20.3393 7.9681 0.3813 0.9163
-30.3347 7.8342 0.5469 0.8822
-20.8696 2.7728 0.3675 0.9192
-46.8736 -23.8775 0.9182 0.8102
-35.4594 -23.8339 0.7458 0.8429
-26.8684 -23.2080 0.6197 0.8676
-21.1009 -23.2156 0.5476 0.8820
-19.5161 -27.5069 0.5887 0.8738
-19.1850 -35.4182 0.7031 0.8512
-19.9891 -50.6662 0.9507 0.8042
-19.4260 -74.4814 1.3436 0.7350
15.2118 -65.7222 1.1775 0.7635
19.7240 -54.3548 1.0093 0.7935
19.6866 -38.8766 0.7606 0.8400
15.5377 -23.2367 0.4879 0.8942
22.6697 -26.3726 0.6070 0.8701
27.5098 -25.1247 0.6503 0.8615
64.7164 -46.1498 1.3874 0.7276
64.9565 -35.3865 1.2911 0.7438
64.9310 -25.7970 1.2195 0.7562
79.6900 8.3507 1.3987 0.7257
22.2051 5.0835 0.3976 0.9129
19.8018 7.1319 0.3674 0.9192
18.7983 9.4627 0.3674 0.9193
18.4364 12.2641 0.3865 0.9152
18.4521 15.7845 0.4238 0.9074
18.3728 20.0203 0.4743 0.8970
18.6724 26.0524 0.5595 0.8796
24.1058 43.9979 0.8758 0.8182
31.5036 78.7439 1.4804 0.7123
1.9481 7.3255 0.1323 0.9701
8.8987 63.4771 1.1188 0.7738
1.6004 85.8779 1.4993 0.7092
-8.7501 85.4759 1.4998 0.7091
-18.1175 80.0193 1.4321 0.7202
-23.7509 66.4437 1.2316 0.7541
-16.0699 32.1154 0.6268 0.8662
-15.5818 23.5459 0.4928 0.8932
-16.2431 19.0806 0.4374 0.9046
-16.0550 14.8047 0.3812 0.9163
-16.2972 11.7398 0.3506 0.9228
-16.3048 8.9840 0.3249 0.9282
-19.8605 8.0010 0.3737 0.9179
-29.1309 7.8219 0.5265 0.8863
-46.8540 -23.3046 0.9134 0.8111
-35.4358 -23.3281 0.7405 0.8439
-27.3810 -23.1964 0.6264 0.8663
-28.3390 -30.5848 0.7278 0.8464
-19.9292 -27.5262 0.5932 0.8729
-19.1828 -34.6178 0.6909 0.8536
-19.4901 -48.0471 0.9050 0.8127
-19.9232 -73.4955 1.3292 0.7374
2.4057 -24.6667 0.4326 0.9056
14.5617 -65.7762 1.1759 0.7637
21.3263 -60.5749 1.1209 0.7734
19.6840 -39.8138 0.7752 0.8372
15.2170 -23.2358 0.4848 0.8948
22.2327 -26.3714 0.6021 0.8711
27.3963 -25.5069 0.6534 0.8609
64.7138 -47.0899 1.3970 0.7260
64.7446 -36.0801 1.2937 0.7434
64.7713 -26.4552 1.2212 0.7559
22.7868 4.9873 0.4072 0.9109
19.8658 6.9406 0.3673 0.9193
18.6847 9.1821 0.3634 0.9201
18.3223 11.9364 0.3817 0.9162
18.5872 15.5940 0.4235 0.9075
18.6097 19.8924 0.4755 0.8968
22.1921 30.3446 0.6562 0.8604
32.3814 78.7415 1.4861 0.7113
2.0168 7.3011 0.1322 0.9702
9.8223 65.4933 1.1560 0.7672
2.3852 84.5098 1.4757 0.7130
-9.1109 98.2917 1.7230 0.6737
-17.4017 80.4299 1.4364 0.7195
-22.4953 64.8860 1.1987 0.7598
-16.0040 32.7647 0.6365 0.8643
-16.2651 25.0979 0.5220 0.8872
-16.2806 19.5001 0.4434 0.9034
-16.1121 15.1457 0.3860 0.9153
-16.2965 11.9783 0.3530 0.9223
-16.3042 9.1885 0.3267 0.9279
-18.9819 7.8593 0.3586 0.9211
-28.2812 7.8851 0.5125 0.8892
-47.6992 -23.1573 0.9255 0.8089
-35.9612 -23.1831 0.7468 0.8427
-35.7878 -29.7338 0.8121 0.8302
-28.8873 -30.5833 0.7343 0.8451
-20.3279 -27.5180 0.5972 0.8721
-19.4621 -34.3413 0.6890 0.8539
-19.2147 -46.0948 0.8717 0.8189
-19.3522 -68.7725 1.2471 0.7514
2.0148 -22.9318 0.4018 0.9120
21.3211 -62.4651 1.1521 0.7679
19.5322 -40.4785 0.7845 0.8354
19.5599 -30.5013 0.6325 0.8651
21.8027 -26.3702 0.5972 0.8721
26.8737 -25.5055 0.6467 0.8622
65.1168 -48.3445 1.4156 0.7229
64.9520 -37.0160 1.3049 0.7415
64.9270 -27.2476 1.2291 0.7545
23.5383 4.9158 0.4197 0.9083
19.7562 6.6906 0.3641 0.9199
18.8924 9.0604 0.3657 0.9196
18.3616 11.7129 0.3802 0.9166
18.5789 15.2861 0.4200 0.9082
18.6978 19.6065 0.4729 0.8973
22.1904 29.7398 0.6477 0.8620
33.2662 78.7390 1.4920 0.7104
22.5982 78.8560 1.4318 0.7202
12.6097 78.9155 1.3949 0.7264
3.1462 83.1833 1.4530 0.7168
-8.0412 96.8425 1.6962 0.6779
-16.6817 80.8429 1.4408 0.7188
-21.5359 64.0979 1.1804 0.7630
-16.2401 34.0724 0.6588 0.8598
-16.2636 25.6305 0.5298 0.8856
-16.1045 19.6695 0.4437 0.9033
-16.1113 15.4385 0.3895 0.9146
-16.1206 12.0886 0.3517 0.9226
-16.3037 9.3952 0.3285 0.9275
-18.4755 7.8579 0.3504 0.9228
-27.7988 8.0385 0.5051 0.8907
-48.2885 -22.8743 0.9327 0.8075
-36.4290 -22.9932 0.7519 0.8417
-29.7329 -24.2252 0.6694 0.8578
-29.4455 -30.5818 0.7410 0.8438
-26.0003 -34.4996 0.7541 0.8413
-19.4443 -33.5558 0.6769 0.8563
-19.4890 -45.5196 0.8643 0.8203
-19.7763 -67.7805 1.2324 0.7539
21.1406 -63.9341 1.1754 0.7638
20.4299 -43.3972 0.8372 0.8254
19.6576 -31.3101 0.6453 0.8625
21.3796 -26.3690 0.5925 0.8730
26.3614 -25.5041 0.6402 0.8635
